NCOLS 129
NROWS 89
XLLCORNER 4477375.0000000000
YLLCORNER 5725725.0000000000
CELLSIZE 10.000000
NODATA_VALUE -99999.0000
0.8535 0.8491 0.7897 0.7104 0.7293 0.7353 0.7412 0.7037 0.4552 0.4805 0.4507 0.4074 0.5193 0.5510 0.5991 0.5567 0.5716 0.7264 0.7671 0.8361 0.9219 0.8429 0.6759 0.6801 0.8307 0.9967 1.1117 1.1594 1.1855 1.2522 1.2812 1.2627 1.1897 1.1460 1.1455 1.0838 1.0573 1.0440 1.1712 1.2723 1.2612 1.2064 1.2078 1.2518 1.1945 1.1767 1.2193 1.1887 1.1616 1.1312 1.1366 1.1803 1.1904 1.1937 1.1741 1.1518 1.1056 1.0912 1.0963 1.1067 1.1398 1.1320 1.0915 1.0956 1.1262 1.1195 1.1059 1.0884 1.1304 1.1980 1.2483 1.3532 1.3835 1.4227 1.3628 1.2571 1.2415 1.2325 1.2262 1.1670 1.1110 1.0880 1.0694 1.0452 1.0684 1.0437 1.0879 1.1642 1.2373 1.4145 1.4380 1.4810 1.4649 1.5409 1.6203 1.7274 1.7362 1.6797 1.6621 1.5937 1.4859 1.3789 1.3767 1.1774 1.1554 0.9926 0.8539 0.8655 0.8246 0.7895 0.7254 0.6229 0.5284 0.3932 0.4085 0.5012 0.7053 0.7716 0.6870 0.6081 0.5052 0.5106 0.6248 0.5541 0.6927 0.8961 0.7939 0.7674 0.7845
0.7685 0.7627 0.7292 0.6865 0.6861 0.6382 0.5264 0.6038 0.6683 0.5621 0.5059 0.5173 0.6200 0.6183 0.6455 0.6280 0.6096 0.7187 0.7944 0.8301 0.8867 0.8617 0.7722 0.7842 0.9429 1.0650 1.1168 1.1408 1.1807 1.2486 1.2542 1.2130 1.1473 1.1390 1.1083 1.0589 1.0444 1.0323 1.1578 1.2463 1.2525 1.2163 1.2172 1.2113 1.1637 1.1861 1.2014 1.2112 1.2139 1.2256 1.2193 1.1903 1.1926 1.2034 1.1788 1.1512 1.1368 1.1394 1.1343 1.1071 1.1123 1.1045 1.0954 1.1056 1.1197 1.1249 1.1337 1.1479 1.2135 1.2672 1.3193 1.3547 1.3540 1.3385 1.2540 1.1857 1.1507 1.1311 1.0928 1.0577 1.0627 1.0692 1.0555 1.1369 1.1714 1.1848 1.2230 1.2914 1.4188 1.4781 1.4682 1.5090 1.5845 1.6345 1.6598 1.6975 1.6891 1.6504 1.5771 1.4598 1.3789 1.2954 1.2255 1.1423 1.0864 0.9276 0.8943 0.8982 0.8641 0.8029 0.7184 0.6209 0.5732 0.5266 0.4563 0.4934 0.4452 0.5751 0.5869 0.5653 0.5345 0.4906 0.5418 0.5320 0.6290 0.8105 0.9134 0.7950 0.5995
0.6730 0.6793 0.6777 0.6485 0.6270 0.6058 0.5571 0.4374 0.5670 0.5617 0.5392 0.5747 0.6708 0.6810 0.6982 0.6847 0.6644 0.7450 0.8334 0.8591 0.8969 0.9125 0.8826 0.9169 1.0711 1.1465 1.1420 1.1805 1.2706 1.3071 1.2723 1.2627 1.2172 1.1492 1.1001 1.0510 0.9910 1.0387 1.1533 1.2269 1.2556 1.2283 1.2449 1.2196 1.1865 1.1866 1.2694 1.3179 1.2825 1.2454 1.1809 1.1768 1.2109 1.1935 1.1724 1.1574 1.1388 1.1408 1.1031 1.1272 1.1791 1.1444 1.1150 1.1378 1.1606 1.1867 1.2092 1.2479 1.2846 1.2946 1.3187 1.3343 1.3487 1.2945 1.1673 1.0825 1.0878 1.0769 1.0709 1.1161 1.1635 1.1766 1.1909 1.2633 1.2969 1.3469 1.3737 1.4516 1.5404 1.5602 1.6229 1.6608 1.7004 1.7020 1.7011 1.6896 1.6296 1.5146 1.3869 1.2652 1.2857 1.2034 1.1156 1.0512 0.9562 0.9358 0.9220 0.8941 0.8301 0.7656 0.7027 0.5995 0.5793 0.5017 0.4048 0.3541 0.2801 0.3256 0.3836 0.5166 0.5912 0.5877 0.6450 0.6811 0.7452 0.7211 0.7721 0.7565 0.6646
0.7385 0.7294 0.7048 0.6787 0.6262 0.5902 0.5549 0.5528 0.5870 0.6106 0.6407 0.6603 0.7080 0.7234 0.7297 0.7492 0.7615 0.8112 0.8938 0.9582 0.9717 0.9799 0.9743 1.0453 1.1516 1.1838 1.1924 1.2330 1.2867 1.2539 1.2128 1.1981 1.1074 1.0835 1.0699 0.9885 0.9659 1.1086 1.2721 1.4043 1.4145 1.4044 1.3950 1.3609 1.3288 1.2992 1.3147 1.2873 1.2791 1.2488 1.2377 1.2303 1.1818 1.1537 1.1609 1.1520 1.1331 1.1437 1.1431 1.1597 1.1626 1.1749 1.1819 1.1909 1.2039 1.2394 1.2751 1.2884 1.3123 1.3497 1.3446 1.3327 1.2746 1.1952 1.1411 1.1375 1.1740 1.1478 1.1354 1.1789 1.2604 1.2806 1.2807 1.3408 1.4139 1.4705 1.5279 1.5846 1.6673 1.7166 1.7461 1.7472 1.7490 1.7157 1.6329 1.5512 1.4589 1.3475 1.1930 1.2025 1.1801 0.9468 0.8769 0.8817 0.8484 0.8220 0.7947 0.7420 0.6751 0.6520 0.5634 0.4842 0.4528 0.3580 0.2760 0.1912 0.1980 0.3444 0.5071 0.6083 0.6129 0.6838 0.7473 0.7998 0.8593 0.8376 0.8356 0.8224 0.8736
0.8313 0.8190 0.7817 0.7722 0.7365 0.6957 0.6437 0.6383 0.6174 0.4744 0.4907 0.6640 0.7712 0.8327 0.7687 0.7698 0.8335 0.8113 1.0054 1.1605 1.1811 1.1749 1.1490 1.1425 1.1849 1.1910 1.1886 1.2011 1.2048 1.1909 1.2137 1.1952 1.2058 1.2335 1.1698 1.1348 1.1786 1.3434 1.4563 1.5346 1.5243 1.5188 1.4554 1.3825 1.3297 1.2920 1.3007 1.3123 1.3070 1.2684 1.2740 1.2229 1.1765 1.1414 1.1408 1.1345 1.1500 1.1648 1.1558 1.1473 1.1866 1.2006 1.1877 1.1857 1.2079 1.2259 1.2407 1.2510 1.2775 1.2543 1.2055 1.1628 1.1417 1.2099 1.1970 1.1948 1.2018 1.1447 1.1036 1.2011 1.3382 1.3584 1.3887 1.4431 1.5394 1.6298 1.6642 1.7233 1.7727 1.7930 1.7696 1.7319 1.6743 1.5199 1.4381 1.3875 1.2532 1.0827 0.9770 0.9903 0.8135 0.7672 0.8393 0.8127 0.7314 0.7025 0.6766 0.6271 0.6049 0.5364 0.4054 0.3588 0.3074 0.3100 0.3742 0.2711 0.2483 0.4246 0.5779 0.6334 0.7050 0.7637 0.7803 0.8122 0.8265 0.7939 0.7986 0.8466 0.8868
1.0592 1.0121 0.5184 0.4624 0.6421 0.6682 0.6887 0.6869 0.6843 0.6316 0.6080 0.7397 0.8339 0.9524 0.9825 0.9658 1.0030 1.1966 1.2981 1.2854 1.2778 1.3038 1.2678 1.2368 1.2179 1.2330 1.2603 1.3036 1.3019 1.3269 1.3411 1.2921 1.3061 1.2721 1.1853 1.2001 1.2409 1.3361 1.4643 1.5468 1.5132 1.4828 1.4217 1.3246 1.2814 1.2737 1.2718 1.2816 1.2612 1.2518 1.2605 1.2382 1.1642 1.1124 1.1425 1.1704 1.1652 1.1214 1.0713 1.0890 1.1596 1.1552 1.1188 1.1233 1.1230 1.1381 1.1662 1.1621 1.1650 1.1538 1.1510 1.1541 1.1760 1.2410 1.2511 1.2407 1.2289 1.1803 1.1444 1.2772 1.4241 1.5005 1.5373 1.5983 1.7043 1.7679 1.7872 1.8228 1.8048 1.7957 1.7345 1.6363 1.4633 1.3351 1.2434 1.0012 0.8393 0.7824 0.7621 0.7595 0.7300 0.7348 0.7241 0.6829 0.6596 0.6324 0.5904 0.4732 0.4471 0.4654 0.4124 0.3492 0.3522 0.3345 0.3738 0.3874 0.3544 0.5075 0.6325 0.6730 0.7204 0.7289 0.7578 0.7920 0.7739 0.7804 0.8350 0.8340 0.8194
0.7540 0.8766 0.6936 0.3811 0.5241 0.6093 0.6543 0.6751 0.7100 0.6926 0.7314 0.8016 0.8757 0.9949 1.0541 1.0345 1.0568 1.1510 1.2163 1.2498 1.2556 1.3191 1.2939 1.2545 1.2382 1.2547 1.3030 1.3290 1.3061 1.3441 1.3021 1.2456 1.2941 1.2804 1.2376 1.1833 1.2584 1.4309 1.5368 1.5599 1.4997 1.4634 1.3724 1.2851 1.2663 1.2584 1.2434 1.2867 1.2724 1.2534 1.2638 1.2229 1.1018 1.0836 1.0995 1.1031 1.0760 1.0625 1.0578 1.0800 1.0853 1.0940 1.1094 1.1120 1.0957 1.1223 1.1433 1.1393 1.1671 1.1755 1.2050 1.2376 1.2342 1.2916 1.3119 1.2885 1.2675 1.2708 1.2842 1.4168 1.5648 1.6460 1.6997 1.7597 1.8174 1.8451 1.8456 1.8179 1.7648 1.7189 1.5897 1.4161 1.1748 0.9327 0.6991 0.6765 0.6609 0.6586 0.6754 0.6406 0.6373 0.6798 0.6330 0.5937 0.5741 0.4884 0.5375 0.4917 0.4020 0.4488 0.4385 0.3917 0.3954 0.3932 0.4096 0.4718 0.4582 0.5398 0.6328 0.6868 0.7356 0.7523 0.7577 0.7846 0.7891 0.7983 0.7787 0.7887 0.8265
0.6680 0.7729 0.6835 0.4732 0.5515 0.6530 0.7185 0.7044 0.7378 0.7772 0.8195 0.8356 0.9504 1.0753 1.0540 0.9973 1.0320 1.1239 1.2710 1.2800 1.3238 1.3936 1.3636 1.3091 1.2810 1.2801 1.3126 1.3113 1.3283 1.3246 1.2712 1.2625 1.3120 1.3161 1.2694 1.2082 1.3470 1.4613 1.5497 1.5357 1.4264 1.3831 1.3445 1.2865 1.2633 1.2499 1.2550 1.3215 1.2691 1.1541 1.1589 1.1198 1.0441 1.0136 1.0277 1.0633 1.0645 1.0596 1.0922 1.0967 1.0754 1.0895 1.1160 1.1242 1.1254 1.1545 1.1684 1.1505 1.1794 1.2133 1.2636 1.2985 1.2808 1.2817 1.3458 1.3664 1.3698 1.4156 1.4668 1.5661 1.6813 1.7819 1.8192 1.8410 1.8621 1.8509 1.8223 1.7119 1.6292 1.5421 1.2946 0.9492 0.6293 0.5924 0.6374 0.5341 0.5117 0.6039 0.6471 0.5856 0.5776 0.6875 0.6544 0.5428 0.5765 0.4801 0.5012 0.5604 0.4334 0.4470 0.4885 0.4674 0.4550 0.4526 0.4663 0.5308 0.5297 0.5571 0.6356 0.7192 0.7651 0.7674 0.7821 0.7818 0.7799 0.7814 0.7732 0.7888 0.8080
0.5509 0.5893 0.6694 0.6224 0.5816 0.6741 0.6834 0.7047 0.7643 0.7952 0.9024 1.0013 1.0584 1.0708 1.0154 1.0212 1.0796 1.1761 1.2968 1.3008 1.3685 1.4084 1.3735 1.2967 1.2744 1.2689 1.2957 1.3270 1.3461 1.3287 1.2866 1.2778 1.3115 1.3277 1.2770 1.2261 1.3573 1.4652 1.5453 1.4764 1.4031 1.3850 1.3711 1.3067 1.2555 1.2265 1.2505 1.2726 1.1072 0.9967 1.0302 1.0229 1.0223 1.0139 1.0204 1.0686 1.0746 1.0899 1.1239 1.1163 1.0903 1.0898 1.1253 1.1530 1.1600 1.1596 1.1668 1.1628 1.2340 1.3040 1.3106 1.3312 1.3027 1.3190 1.4379 1.4743 1.4679 1.5785 1.6299 1.6986 1.7917 1.8780 1.8823 1.8793 1.8485 1.8022 1.7137 1.5272 1.4350 1.0814 0.7590 0.5993 0.5310 0.5705 0.4864 0.3618 0.4275 0.5893 0.6857 0.5948 0.5454 0.6830 0.7060 0.5838 0.5881 0.5417 0.5017 0.6029 0.5154 0.4861 0.5371 0.5279 0.5403 0.5395 0.5310 0.5757 0.5876 0.6098 0.6790 0.7439 0.7690 0.7867 0.7895 0.7866 0.7932 0.7951 0.7834 0.8332 0.8720
0.4799 0.5771 0.6843 0.6613 0.6741 0.7375 0.7772 0.7978 0.8020 0.8447 0.9729 1.0734 1.0640 1.0969 1.0974 1.0930 1.1065 1.1864 1.2689 1.3073 1.3729 1.4002 1.3298 1.2654 1.2796 1.2718 1.3037 1.3598 1.3772 1.3379 1.3055 1.2852 1.2749 1.3099 1.3000 1.2741 1.3834 1.4745 1.5439 1.4867 1.4010 1.3359 1.3037 1.2318 1.1468 1.1343 1.1285 1.1167 1.0204 0.9388 0.9808 1.0361 1.0133 1.0023 1.0466 1.0990 1.1422 1.1735 1.1744 1.1586 1.1374 1.1397 1.1641 1.1835 1.1772 1.1829 1.2299 1.2385 1.3105 1.3433 1.3346 1.3895 1.3624 1.3908 1.5218 1.5532 1.6036 1.7122 1.7451 1.7966 1.8797 1.9126 1.8977 1.8528 1.7807 1.7038 1.5042 1.2133 0.8698 0.5695 0.6005 0.5939 0.4657 0.4470 0.4349 0.3678 0.3834 0.5354 0.7088 0.6702 0.5403 0.6543 0.7209 0.6310 0.5839 0.5718 0.5263 0.6151 0.5764 0.5351 0.5931 0.6084 0.6008 0.6156 0.6183 0.6242 0.6562 0.6564 0.7187 0.7653 0.7779 0.8107 0.8193 0.8049 0.8130 0.8339 0.8912 0.9201 0.8924
0.4706 0.5788 0.7447 0.7405 0.7210 0.7730 0.7782 0.7984 0.8933 0.9446 1.0420 1.0404 1.0463 1.1327 1.1351 1.1274 1.1209 1.1614 1.2322 1.2810 1.3201 1.3458 1.2864 1.2253 1.1812 1.1509 1.2192 1.2971 1.3029 1.2881 1.2816 1.2546 1.2502 1.3051 1.3261 1.4019 1.4151 1.4660 1.4904 1.3614 1.2210 1.1243 1.1504 1.0938 1.0289 1.0642 1.0428 1.0416 1.0437 1.0036 1.0039 1.0300 1.0451 1.0378 1.0863 1.1689 1.2356 1.2456 1.2284 1.2275 1.2137 1.1806 1.1876 1.2283 1.2237 1.2477 1.3032 1.2960 1.3378 1.3935 1.4128 1.4184 1.4220 1.4813 1.6032 1.6617 1.7481 1.7844 1.8389 1.8687 1.8948 1.9188 1.8840 1.7966 1.6504 1.4341 0.9289 0.6205 0.4988 0.4962 0.5597 0.5385 0.4055 0.4031 0.4447 0.3997 0.3741 0.4771 0.6649 0.6929 0.5679 0.6163 0.7368 0.6787 0.5856 0.5847 0.5184 0.6056 0.6451 0.5813 0.6331 0.6805 0.6721 0.6792 0.6921 0.6975 0.7150 0.7285 0.7514 0.7565 0.7956 0.8306 0.8462 0.8555 0.8845 0.9229 0.9192 0.8813 0.9174
0.4717 0.6070 0.7707 0.7475 0.7422 0.7961 0.8074 0.8505 0.9326 0.9732 0.9487 0.9946 1.0985 1.1496 1.1672 1.1339 1.1113 1.1228 1.1811 1.2386 1.2796 1.3103 1.2172 1.1377 1.1066 1.1029 1.1458 1.1804 1.1957 1.2267 1.2108 1.1540 1.1118 1.2303 1.3642 1.3648 1.1595 1.2542 1.2389 1.1159 1.0248 0.9883 1.0773 1.0728 1.0561 1.0994 1.0925 1.0747 1.0896 1.0414 0.9686 1.0379 1.1289 1.1198 1.1562 1.2180 1.2961 1.3175 1.3007 1.2873 1.2600 1.2309 1.2562 1.2977 1.2837 1.3017 1.3601 1.3463 1.3815 1.4347 1.4379 1.5040 1.5679 1.6297 1.7265 1.7934 1.8383 1.8650 1.9036 1.8682 1.8463 1.9400 1.7861 1.5782 1.2066 0.7086 0.4780 0.5204 0.4426 0.3817 0.5015 0.5459 0.4221 0.3868 0.4573 0.4096 0.3601 0.4023 0.5974 0.7007 0.5847 0.5823 0.7185 0.6959 0.5798 0.6246 0.5869 0.5766 0.6792 0.6344 0.6839 0.7741 0.7630 0.7597 0.7653 0.7445 0.7345 0.7441 0.7528 0.7721 0.8177 0.8538 0.8879 0.9059 0.9418 0.9553 0.9159 0.9457 1.0222
0.4972 0.6433 0.7874 0.7584 0.7719 0.8327 0.8653 0.8924 0.9648 0.9449 0.9546 1.0851 1.1230 1.1764 1.1844 1.1415 1.1214 1.1057 1.1581 1.1891 1.2447 1.2843 1.2088 1.1383 1.1101 1.1035 1.1055 1.1047 1.1340 1.1668 1.1669 1.0928 1.0403 1.0854 1.1933 1.1342 0.9814 1.0326 1.0521 1.0582 1.0186 1.0029 1.1132 1.1508 1.1488 1.1575 1.1190 1.1043 1.1064 1.0522 1.0141 1.0771 1.1996 1.2261 1.2239 1.2706 1.3690 1.3920 1.3520 1.3360 1.3173 1.2896 1.3021 1.3309 1.3195 1.3324 1.4165 1.3803 1.4137 1.5110 1.5855 1.6473 1.7210 1.7941 1.8341 1.8819 1.9163 1.9155 1.9001 1.7527 1.7536 1.6446 1.4000 1.0067 0.5748 0.4745 0.4610 0.4453 0.4241 0.3570 0.4566 0.5429 0.4420 0.3661 0.4547 0.4135 0.3447 0.3766 0.5396 0.6904 0.6027 0.5200 0.6844 0.7466 0.6258 0.5828 0.6110 0.6083 0.7132 0.7133 0.7439 0.8312 0.8198 0.8092 0.8055 0.7828 0.7577 0.7682 0.7791 0.7976 0.8392 0.8967 0.9448 0.9591 0.9588 0.9447 0.9390 0.9764 0.9944
0.5135 0.6634 0.8099 0.7935 0.8451 0.8932 0.8815 0.9592 1.0029 0.9299 1.0086 1.1032 1.1447 1.1944 1.1920 1.1547 1.1224 1.0844 1.1150 1.1265 1.1980 1.2738 1.2437 1.1682 1.1336 1.1057 1.1072 1.1022 1.1146 1.1106 1.0956 1.0933 1.0625 1.0222 1.0942 1.0393 0.9427 1.0121 1.0598 1.0669 1.0871 1.1273 1.1643 1.2019 1.2063 1.1728 1.1584 1.1555 1.1383 1.1432 1.0825 1.1541 1.2732 1.2927 1.3118 1.3528 1.4055 1.4168 1.3920 1.3739 1.3493 1.3194 1.3294 1.3884 1.3807 1.4142 1.4684 1.4465 1.5195 1.6496 1.7145 1.7805 1.8649 1.8813 1.8924 1.9550 1.9377 1.9050 1.7914 1.4402 1.3756 1.3347 1.2047 0.6003 0.4645 0.3851 0.4325 0.4364 0.4483 0.3358 0.4037 0.5528 0.4922 0.3664 0.4453 0.4231 0.3401 0.3429 0.4553 0.6580 0.6736 0.5449 0.6150 0.7267 0.6791 0.6047 0.6277 0.6363 0.7597 0.8040 0.7989 0.8687 0.8666 0.8501 0.8571 0.8345 0.7911 0.7975 0.8045 0.8179 0.8512 0.9167 0.9612 0.9790 0.9565 0.9444 0.9854 1.0693 1.0919
0.5422 0.7126 0.8499 0.8640 0.8932 0.9105 0.9570 0.9914 0.9360 0.9612 1.0639 1.1170 1.1709 1.1988 1.1927 1.1645 1.1118 1.0688 1.0784 1.0748 1.1697 1.2882 1.2801 1.2073 1.1392 1.1002 1.1001 1.0920 1.1014 1.1028 1.0946 1.0943 1.0840 1.0467 1.0483 0.9975 0.9660 1.0473 1.1155 1.1312 1.1711 1.2300 1.1917 1.2387 1.2763 1.2518 1.2441 1.2143 1.1869 1.2106 1.1907 1.2214 1.3089 1.4011 1.4027 1.3831 1.4175 1.4511 1.4315 1.3979 1.3739 1.3559 1.4053 1.4585 1.4603 1.4799 1.5513 1.5966 1.6756 1.7914 1.8331 1.8901 1.9324 1.9164 1.9402 1.9530 1.9117 1.8049 1.5126 1.1348 0.9095 1.1877 1.0694 0.5937 0.5133 0.3414 0.3843 0.4205 0.4432 0.3973 0.3795 0.5188 0.5412 0.3798 0.4118 0.4666 0.3741 0.3770 0.4443 0.6136 0.7021 0.5894 0.5714 0.7159 0.7077 0.6160 0.7068 0.7428 0.7706 0.8479 0.8477 0.8881 0.9119 0.8904 0.8912 0.8482 0.8134 0.8256 0.8339 0.8492 0.8748 0.9316 0.9858 0.9640 0.9947 1.0155 1.0746 1.1407 1.1590
0.6503 0.7683 0.8810 0.9065 0.9462 0.9768 0.9526 0.9617 0.9496 1.0116 1.0710 1.1385 1.2101 1.2256 1.2061 1.1631 1.1162 1.0701 1.0674 1.0665 1.1518 1.2820 1.3027 1.2256 1.1348 1.0894 1.0866 1.0960 1.1069 1.1071 1.0975 1.1056 1.0908 1.0445 1.0470 1.0276 1.0216 1.0405 1.1748 1.2312 1.2674 1.3147 1.2590 1.3037 1.3392 1.3187 1.3013 1.2732 1.2510 1.2998 1.2620 1.2802 1.3867 1.4636 1.4443 1.4124 1.4426 1.4717 1.4694 1.4221 1.4197 1.4411 1.4682 1.5166 1.5315 1.6010 1.7031 1.7424 1.8222 1.8907 1.9084 1.9573 1.9388 1.9301 1.9349 1.9135 1.8000 1.4895 1.1618 0.7977 0.7028 1.0203 0.8778 0.6070 0.5172 0.3287 0.3266 0.3802 0.4223 0.4231 0.3880 0.5095 0.5893 0.4804 0.4026 0.4915 0.4367 0.4017 0.4560 0.6188 0.7143 0.6341 0.5763 0.6993 0.7371 0.6865 0.7477 0.7843 0.8182 0.8659 0.8683 0.9037 0.9335 0.9182 0.9138 0.8967 0.8714 0.8503 0.8579 0.8637 0.8817 0.9660 0.9590 0.9881 1.0550 1.0719 1.1498 1.1631 1.2198
0.7809 0.8368 0.8977 0.9153 0.9283 0.9429 0.9644 0.9440 0.9798 1.0661 1.0975 1.1784 1.2370 1.2450 1.2052 1.1712 1.1097 1.0665 1.0784 1.0602 1.1155 1.2707 1.3039 1.2192 1.1324 1.1014 1.0985 1.1135 1.1235 1.1134 1.0940 1.0991 1.1102 1.0669 1.0542 1.1146 1.0916 1.0832 1.2647 1.3134 1.3638 1.3565 1.3245 1.3480 1.3715 1.3993 1.3575 1.2987 1.3052 1.3428 1.3379 1.3758 1.4115 1.5008 1.4829 1.4491 1.4508 1.5083 1.5183 1.4806 1.4838 1.4709 1.4992 1.5777 1.6479 1.7143 1.7826 1.8457 1.8874 1.9166 1.9352 1.9396 1.9126 1.9193 1.8886 1.7531 1.4521 1.0791 0.7583 0.6477 0.6595 0.6232 0.6685 0.5870 0.5082 0.3398 0.3122 0.3895 0.3967 0.4489 0.3749 0.4736 0.5913 0.5256 0.4687 0.5676 0.5067 0.4581 0.5063 0.5909 0.7282 0.6874 0.6244 0.6830 0.7558 0.7746 0.7785 0.8047 0.8430 0.8903 0.8985 0.9479 0.9631 0.9309 0.9327 0.9231 0.8795 0.8727 0.8803 0.8878 0.9545 0.9415 0.9604 1.0447 1.0715 1.1506 1.1448 1.2306 1.3448
0.8063 0.8130 0.8554 0.9051 0.9377 0.9761 0.9615 0.9779 1.0577 1.0759 1.1297 1.2096 1.2518 1.2613 1.2116 1.1632 1.1317 1.1262 1.0788 1.0286 1.1196 1.3010 1.3139 1.2313 1.1655 1.1208 1.1134 1.1242 1.1265 1.1271 1.1160 1.1314 1.1452 1.1039 1.1194 1.1879 1.1817 1.1715 1.3063 1.3889 1.4317 1.3986 1.4266 1.3739 1.4150 1.4427 1.3697 1.3500 1.3913 1.4062 1.4146 1.3945 1.4587 1.5263 1.5074 1.4807 1.4792 1.5387 1.5475 1.5111 1.5159 1.5323 1.5944 1.6819 1.7411 1.7897 1.8726 1.9011 1.9144 1.9291 1.9407 1.9165 1.9014 1.8632 1.7167 1.3824 0.9763 0.6294 0.6002 0.6340 0.5453 0.3930 0.5182 0.5392 0.4945 0.4086 0.3120 0.4137 0.4074 0.4610 0.4340 0.4647 0.5922 0.5709 0.5080 0.6005 0.6000 0.5175 0.5490 0.6054 0.7455 0.7595 0.6790 0.6950 0.7799 0.7982 0.7847 0.8454 0.8962 0.9033 0.9380 0.9508 0.9375 0.9427 0.9469 0.9451 0.9313 0.9010 0.9023 0.9598 0.9426 0.9394 1.0100 1.0465 1.1299 1.1992 1.2182 1.3550 1.3886
0.8007 0.8070 0.8762 0.9245 0.9750 0.9970 1.0080 1.0532 1.0795 1.1137 1.1828 1.1989 1.2505 1.2943 1.2472 1.2049 1.1795 1.1272 1.0841 1.0395 1.1542 1.3261 1.3198 1.2669 1.1880 1.1297 1.1272 1.1208 1.1346 1.1414 1.1404 1.1703 1.2021 1.2095 1.1895 1.2425 1.2607 1.2613 1.3743 1.4669 1.4881 1.4624 1.4994 1.4126 1.4489 1.4802 1.4549 1.4309 1.4218 1.4249 1.4567 1.4792 1.5254 1.5389 1.5636 1.5415 1.5162 1.5790 1.6194 1.6403 1.6610 1.6795 1.7347 1.8003 1.8399 1.8868 1.9379 1.9374 1.9346 1.9317 1.9175 1.8738 1.8094 1.7013 1.2481 0.7577 0.5820 0.5975 0.5929 0.5322 0.4873 0.3421 0.3766 0.5184 0.5123 0.4679 0.3457 0.4166 0.4442 0.4583 0.4649 0.4447 0.5986 0.6636 0.5820 0.6337 0.6765 0.5946 0.6092 0.6412 0.7398 0.7881 0.7413 0.7392 0.8034 0.8155 0.8274 0.8956 0.9049 0.9142 0.9400 0.9317 0.9476 0.9567 0.9671 0.9715 0.9686 0.9608 0.9474 0.9454 0.9640 0.9868 1.0579 1.0858 1.1857 1.2534 1.3257 1.4406 1.4855
0.7721 0.8000 0.9024 0.9668 1.0480 1.0545 1.0508 1.0829 1.1133 1.1427 1.1654 1.1960 1.3027 1.3597 1.3061 1.2336 1.1709 1.1324 1.0618 1.0406 1.2387 1.3809 1.3399 1.2861 1.2005 1.1419 1.1183 1.1214 1.1411 1.1836 1.2210 1.2327 1.2765 1.2811 1.2579 1.3189 1.3350 1.4096 1.4420 1.5156 1.5189 1.5353 1.5384 1.4457 1.4850 1.5140 1.5030 1.4673 1.4811 1.4845 1.5569 1.5799 1.6014 1.5920 1.6375 1.6125 1.6276 1.7047 1.7574 1.7996 1.8033 1.8149 1.8423 1.8864 1.9099 1.9312 1.9543 1.9216 1.9003 1.8700 1.8090 1.7135 1.5372 1.0496 0.5765 0.5617 0.6215 0.6276 0.5549 0.4620 0.4312 0.3899 0.3521 0.4863 0.5260 0.5238 0.3898 0.4131 0.4683 0.4741 0.5105 0.4652 0.5863 0.6960 0.6537 0.6423 0.7377 0.6810 0.6269 0.6865 0.7789 0.8400 0.7871 0.7768 0.8160 0.8358 0.8619 0.8915 0.9154 0.9212 0.9236 0.9393 0.9540 0.9713 0.9893 1.0059 1.0121 1.0024 0.9886 0.9517 0.9764 1.0336 1.1261 1.1594 1.2531 1.3357 1.5073 1.5759 1.6473
0.6357 0.7920 1.0286 1.0507 1.0915 1.0750 1.0777 1.1173 1.1384 1.1931 1.2511 1.2987 1.3808 1.4391 1.3637 1.2235 1.1660 1.1439 1.1004 1.1563 1.3333 1.4175 1.3558 1.2796 1.2102 1.1722 1.1414 1.1355 1.1926 1.2517 1.2602 1.2915 1.3626 1.3630 1.3466 1.3699 1.4474 1.4960 1.4325 1.5427 1.5562 1.5859 1.5389 1.4975 1.5126 1.5713 1.5747 1.5408 1.5510 1.5690 1.6425 1.6676 1.6722 1.6443 1.7211 1.7396 1.7912 1.8447 1.8888 1.9137 1.8919 1.8827 1.9039 1.9309 1.9316 1.9370 1.9318 1.8690 1.8259 1.7209 1.5943 1.2834 0.7888 0.5839 0.5982 0.5869 0.5818 0.5569 0.5079 0.4293 0.4333 0.4235 0.3548 0.4495 0.5268 0.5473 0.4505 0.4102 0.5041 0.4785 0.5381 0.5316 0.6087 0.7098 0.6981 0.6915 0.7757 0.7387 0.6752 0.7207 0.7786 0.8740 0.8553 0.8078 0.8265 0.8629 0.8744 0.8933 0.9182 0.9170 0.9338 0.9553 0.9707 0.9903 1.0193 1.0332 1.0100 1.0207 1.0103 1.0297 1.0077 1.0803 1.2362 1.2833 1.3559 1.5502 1.6883 1.7171 1.8047
0.3942 0.9427 1.2508 1.1718 1.1336 1.0944 1.1468 1.2193 1.2351 1.2728 1.3410 1.3762 1.4615 1.4816 1.3560 1.2339 1.1960 1.1680 1.1685 1.2227 1.3870 1.4466 1.3662 1.2890 1.2311 1.1761 1.1530 1.1789 1.2530 1.3076 1.3373 1.3750 1.4224 1.4243 1.4032 1.4237 1.5008 1.4881 1.4661 1.5755 1.5815 1.6076 1.5735 1.5794 1.5864 1.6323 1.6339 1.6163 1.6407 1.6755 1.7247 1.7482 1.7275 1.7591 1.8426 1.8942 1.9302 1.9500 1.9610 1.9585 1.9360 1.9178 1.9207 1.9392 1.9114 1.9104 1.8542 1.7430 1.5836 1.3529 0.9868 0.6202 0.5104 0.5524 0.6214 0.5766 0.5486 0.5436 0.4916 0.4093 0.4118 0.4430 0.4005 0.4199 0.5299 0.5603 0.5013 0.4003 0.5205 0.5309 0.5462 0.5852 0.6344 0.7310 0.7666 0.7298 0.7821 0.7886 0.7067 0.7447 0.7883 0.8841 0.9266 0.8545 0.8299 0.8761 0.8924 0.9040 0.9183 0.9238 0.9440 0.9703 0.9973 1.0229 1.0081 1.0089 1.0305 1.0454 1.0598 1.0796 1.0679 1.2243 1.3666 1.4587 1.5980 1.7572 1.8079 1.8222 1.8756
0.8315 1.1648 1.2289 1.2702 1.1669 1.1761 1.2302 1.2574 1.2782 1.3380 1.4001 1.4250 1.4827 1.4661 1.3535 1.2422 1.2182 1.1789 1.2034 1.3048 1.4813 1.4858 1.3900 1.3034 1.2360 1.2029 1.2110 1.2376 1.2885 1.3619 1.3949 1.4162 1.4676 1.4714 1.4513 1.4716 1.5408 1.5417 1.5260 1.5857 1.6250 1.6544 1.6326 1.6513 1.6432 1.6892 1.7276 1.7351 1.7677 1.7797 1.7963 1.8353 1.8475 1.8861 1.9393 1.9871 1.9996 1.9777 1.9703 1.9677 1.9391 1.8960 1.8918 1.8639 1.7708 1.7184 1.5873 1.3128 1.0252 0.7823 0.6055 0.5889 0.5509 0.5550 0.6140 0.5169 0.4981 0.5036 0.4773 0.4396 0.4324 0.4514 0.4261 0.4139 0.5347 0.6051 0.5802 0.4339 0.4861 0.5730 0.6033 0.6140 0.6460 0.7495 0.7961 0.7671 0.7935 0.8319 0.7667 0.7545 0.8023 0.9042 0.9747 0.9019 0.8531 0.8905 0.9101 0.9099 0.9185 0.9358 0.9602 0.9937 1.0161 0.9932 1.0132 1.0169 1.0254 1.0783 1.1608 1.1807 1.3055 1.4177 1.5952 1.7157 1.8028 1.8617 1.8577 1.8770 1.8798
1.0075 1.1169 1.2835 1.2645 1.2182 1.2210 1.2647 1.3048 1.3466 1.3909 1.4322 1.4293 1.4781 1.4648 1.3641 1.2524 1.2059 1.1891 1.2786 1.4415 1.5669 1.5151 1.4067 1.3014 1.2313 1.2268 1.2550 1.2757 1.3516 1.4356 1.4447 1.4812 1.5261 1.5309 1.5229 1.5544 1.5953 1.5757 1.6249 1.6544 1.6911 1.6957 1.7098 1.7240 1.7229 1.7992 1.8272 1.8460 1.8557 1.8621 1.8851 1.9291 1.9249 1.9502 1.9808 2.0202 1.9978 1.9476 1.9274 1.9112 1.8578 1.7437 1.6424 1.4584 1.3245 1.2753 1.0537 0.7808 0.6820 0.6219 0.6013 0.5642 0.5379 0.5259 0.5747 0.5198 0.4823 0.5085 0.5022 0.4725 0.4400 0.4663 0.4657 0.3989 0.5161 0.6324 0.6040 0.5092 0.5271 0.5856 0.6123 0.6566 0.6717 0.7722 0.8295 0.8019 0.7942 0.8495 0.8321 0.7830 0.8394 0.9218 0.9830 0.9545 0.8885 0.8918 0.9177 0.9278 0.9295 0.9474 0.9769 0.9959 0.9705 0.9976 1.0385 1.0616 1.0873 1.2043 1.3132 1.4446 1.5657 1.6653 1.7981 1.8518 1.8741 1.8805 1.8680 1.8541 1.7718
1.0024 1.1383 1.3012 1.2849 1.2517 1.2802 1.3231 1.3635 1.3877 1.4222 1.4544 1.4616 1.5153 1.4952 1.3549 1.2329 1.1937 1.2441 1.4153 1.5924 1.6159 1.5151 1.3880 1.2741 1.2413 1.2892 1.3241 1.3491 1.4391 1.5057 1.5246 1.5596 1.5869 1.6116 1.6030 1.6237 1.6297 1.6818 1.7290 1.6700 1.7348 1.7665 1.7918 1.7917 1.8300 1.8819 1.8961 1.9259 1.9248 1.9244 1.9388 1.9606 1.9560 1.9604 1.9664 1.9841 1.9189 1.8304 1.7941 1.7239 1.5036 1.2075 1.0994 1.0047 0.9501 0.9068 0.8627 0.7463 0.6561 0.6087 0.5697 0.5008 0.4829 0.4977 0.5557 0.5449 0.4929 0.5058 0.5271 0.5302 0.4775 0.4685 0.4920 0.4452 0.4937 0.6143 0.6607 0.5965 0.5448 0.6117 0.6401 0.6779 0.7291 0.7832 0.8257 0.8284 0.8124 0.8734 0.8731 0.8231 0.8617 0.9319 0.9932 0.9946 0.9191 0.9011 0.9226 0.9346 0.9352 0.9633 1.0000 0.9833 0.9786 0.9752 1.0745 1.1782 1.2164 1.3880 1.5355 1.6855 1.7649 1.8353 1.8750 1.8988 1.8637 1.8431 1.7822 1.6818 1.5021
1.0847 1.2007 1.3008 1.3136 1.2934 1.3176 1.3405 1.3930 1.4112 1.4536 1.4954 1.5145 1.5448 1.4823 1.3144 1.2281 1.2342 1.3697 1.6014 1.6766 1.6133 1.4716 1.3408 1.2799 1.2992 1.3417 1.3794 1.4371 1.5280 1.5722 1.6034 1.6307 1.6650 1.6696 1.6655 1.6877 1.7037 1.7738 1.7519 1.7339 1.8086 1.8215 1.8566 1.8685 1.9021 1.9341 1.9539 1.9686 1.9463 1.9409 1.9382 1.9333 1.9163 1.9022 1.8983 1.8871 1.7609 1.6138 1.4613 1.2120 0.9826 0.8637 0.8512 0.8947 0.8726 0.8388 0.8553 0.7120 0.6334 0.5883 0.4989 0.4371 0.4447 0.4628 0.5427 0.5800 0.5370 0.5239 0.5143 0.5291 0.5164 0.5002 0.5355 0.4721 0.5004 0.6454 0.6970 0.6541 0.5779 0.6478 0.6772 0.7221 0.7587 0.7858 0.8357 0.8350 0.8442 0.9006 0.9062 0.8674 0.8939 0.9310 0.9957 1.0260 0.9548 0.9118 0.9287 0.9525 0.9472 0.9647 0.9654 0.9798 1.0158 1.0116 1.1717 1.3020 1.4304 1.5862 1.7347 1.8420 1.8832 1.8887 1.8860 1.8568 1.7712 1.6621 1.5305 1.3927 1.2136
1.1256 1.1965 1.3132 1.3348 1.3043 1.3238 1.3649 1.4151 1.4383 1.4805 1.5310 1.5251 1.5221 1.4340 1.2862 1.2572 1.3064 1.4971 1.6849 1.6723 1.5392 1.3968 1.3164 1.3098 1.3398 1.4050 1.4830 1.5705 1.6381 1.6660 1.6922 1.7117 1.7270 1.7355 1.7566 1.7640 1.7959 1.8345 1.8295 1.8106 1.8603 1.8962 1.9298 1.9186 1.9600 1.9690 1.9671 1.9634 1.9282 1.9028 1.8623 1.8412 1.8583 1.8331 1.8061 1.7469 1.4888 1.2013 0.9676 0.8880 0.8609 0.8539 0.8365 0.8828 0.8617 0.8108 0.8042 0.6659 0.5823 0.5168 0.4731 0.4279 0.4343 0.4650 0.5127 0.5814 0.5393 0.5368 0.5505 0.5318 0.5227 0.5197 0.5289 0.5253 0.5127 0.6408 0.7478 0.7335 0.6222 0.6541 0.7125 0.7629 0.7848 0.8017 0.8416 0.8790 0.8792 0.9079 0.9470 0.9018 0.9118 0.9569 0.9908 1.0314 1.0007 0.9230 0.9284 0.9642 0.9477 0.9683 0.9795 1.0190 1.0571 1.0716 1.2769 1.4942 1.6359 1.7639 1.8739 1.9260 1.9140 1.8766 1.8186 1.7166 1.5119 1.3373 1.2802 1.1257 1.0313
1.1364 1.2132 1.3298 1.3377 1.3254 1.3434 1.3841 1.4397 1.4632 1.4967 1.5382 1.5150 1.4998 1.3883 1.2977 1.3228 1.3673 1.6225 1.7366 1.6446 1.4724 1.3484 1.3164 1.3593 1.4253 1.5231 1.6274 1.6970 1.7279 1.7430 1.7781 1.7810 1.7939 1.8081 1.8239 1.8459 1.8765 1.8952 1.8931 1.8839 1.9324 1.9572 1.9729 1.9689 1.9879 1.9611 1.9588 1.9086 1.8536 1.8043 1.7672 1.7577 1.7842 1.6878 1.5808 1.3607 1.0284 0.8433 0.7831 0.8462 0.8908 0.8676 0.8128 0.8580 0.8074 0.7349 0.7238 0.5836 0.5359 0.5187 0.4573 0.4573 0.4362 0.4643 0.4762 0.5664 0.5705 0.5547 0.5452 0.5537 0.5540 0.5655 0.5445 0.5618 0.5173 0.6225 0.7716 0.7737 0.6899 0.6846 0.7356 0.7925 0.8279 0.7886 0.8341 0.9175 0.9215 0.9216 0.9751 0.9540 0.9262 0.9793 1.0110 1.0297 1.0176 0.9636 0.9367 0.9707 0.9706 0.9785 0.9696 1.0078 1.1367 1.2532 1.4361 1.6421 1.7965 1.8861 1.9357 1.9360 1.8787 1.7714 1.6042 1.3479 1.1386 1.0770 0.9436 0.8979 0.9036
1.1662 1.2345 1.3393 1.3619 1.3416 1.3548 1.4093 1.4824 1.4852 1.5139 1.5565 1.5226 1.4820 1.3886 1.3671 1.3859 1.5352 1.7433 1.7400 1.5872 1.4092 1.3570 1.4159 1.4777 1.5541 1.6566 1.7445 1.7812 1.8074 1.8279 1.8383 1.8256 1.8606 1.8746 1.9031 1.9189 1.9302 1.9501 1.9536 1.9679 1.9627 1.9969 1.9981 1.9747 1.9660 1.9292 1.8758 1.7987 1.7838 1.7073 1.5973 1.5343 1.4907 1.2588 1.0765 0.9651 0.8901 0.8145 0.8021 0.8328 0.8655 0.8547 0.7884 0.7685 0.6875 0.6876 0.6629 0.5840 0.5134 0.5392 0.4994 0.4719 0.4499 0.4609 0.4440 0.5340 0.5902 0.5601 0.5782 0.5771 0.5804 0.5788 0.5480 0.6015 0.5988 0.6170 0.7702 0.8237 0.7515 0.7063 0.7648 0.7714 0.8478 0.8433 0.8393 0.9230 0.9546 0.9685 1.0048 1.0075 0.9786 0.9841 1.0112 1.0244 1.0350 0.9992 0.9482 0.9677 1.0038 0.9910 0.9939 1.0550 1.2128 1.4116 1.5957 1.7835 1.8923 1.9288 1.9472 1.8901 1.7547 1.5079 1.1717 0.8951 0.8361 0.7726 0.7303 0.7691 0.7904
1.2013 1.2517 1.3652 1.3660 1.3612 1.4004 1.4673 1.5218 1.5083 1.5452 1.5749 1.5389 1.4761 1.4204 1.4544 1.5251 1.7041 1.7568 1.6899 1.5117 1.4175 1.4859 1.5490 1.6455 1.7168 1.7919 1.8384 1.8692 1.8905 1.8831 1.8732 1.8874 1.9176 1.9305 1.9501 1.9648 1.9729 1.9882 1.9959 1.9753 1.9395 1.9876 1.9618 1.9340 1.8857 1.8324 1.7488 1.6969 1.6105 1.3974 1.1688 1.1484 1.1416 1.0476 0.9266 0.8643 0.8840 0.8500 0.8252 0.8001 0.8574 0.8013 0.6968 0.6564 0.6178 0.6045 0.6059 0.6145 0.5713 0.5341 0.5312 0.5004 0.4845 0.4832 0.4509 0.4728 0.6061 0.5706 0.5585 0.5984 0.6230 0.6162 0.5713 0.6118 0.6285 0.6036 0.7690 0.8751 0.7952 0.7319 0.7769 0.7961 0.8802 0.8634 0.8469 0.9532 1.0113 1.0239 1.0244 1.0226 1.0044 1.0012 1.0179 1.0283 1.0467 1.0221 0.9688 0.9837 1.0065 0.9638 1.0382 1.1384 1.3660 1.5806 1.7498 1.8804 1.9430 1.9560 1.9233 1.7758 1.5032 1.0354 0.6471 0.6000 0.6523 0.6531 0.6725 0.6817 0.6913
1.2024 1.2865 1.3908 1.3994 1.4285 1.4519 1.4998 1.5532 1.5379 1.5640 1.5909 1.5431 1.4702 1.5032 1.5529 1.6477 1.7435 1.7154 1.6335 1.4963 1.4990 1.6055 1.7288 1.8195 1.8304 1.8671 1.9067 1.9450 1.9408 1.9219 1.9060 1.9213 1.9461 1.9608 1.9642 1.9764 1.9701 1.9747 1.9564 1.9220 1.9050 1.9391 1.8784 1.8026 1.7225 1.6259 1.4694 1.3525 1.2370 0.9889 0.8939 0.9757 0.9888 0.9861 0.9154 0.8548 0.8751 0.8327 0.8108 0.7686 0.7744 0.7009 0.6455 0.5689 0.5903 0.5972 0.6034 0.6266 0.6025 0.5599 0.5545 0.4959 0.5018 0.5112 0.4925 0.4717 0.5801 0.5818 0.5876 0.6173 0.6068 0.6281 0.6285 0.6314 0.6555 0.6158 0.7520 0.8690 0.8374 0.7857 0.8145 0.8213 0.8677 0.8992 0.8919 0.9817 1.0467 1.0423 1.0327 1.0648 1.0320 1.0122 1.0186 1.0350 1.0547 1.0517 0.9970 0.9735 1.0222 1.0281 1.1262 1.2683 1.5692 1.7276 1.8561 1.9423 1.9686 1.9489 1.8227 1.4801 0.9416 0.5710 0.4178 0.4666 0.5816 0.6233 0.6505 0.6625 0.6584
1.2331 1.3314 1.4219 1.4530 1.4730 1.4846 1.5381 1.5940 1.5693 1.5889 1.5928 1.5255 1.5038 1.5681 1.5852 1.6902 1.7513 1.7309 1.6578 1.5919 1.6796 1.8053 1.8906 1.8927 1.8675 1.9003 1.9499 1.9752 1.9607 1.9309 1.8898 1.9111 1.9319 1.9252 1.9282 1.9286 1.9161 1.9096 1.8919 1.8542 1.8219 1.7827 1.6280 1.5039 1.3595 1.2300 1.0773 1.0206 0.9400 0.8751 0.8918 0.9132 0.9383 0.9450 0.8965 0.8299 0.8086 0.7753 0.7645 0.7314 0.6889 0.6470 0.6382 0.5535 0.5582 0.6116 0.5937 0.6439 0.6438 0.5782 0.5770 0.5267 0.4987 0.5202 0.5208 0.4883 0.5777 0.6149 0.6005 0.6204 0.6193 0.6394 0.6600 0.6597 0.6923 0.6115 0.7107 0.9002 0.8906 0.8298 0.8320 0.8489 0.8839 0.9344 0.9223 0.9835 1.0750 1.0639 1.0685 1.0789 1.0408 1.0288 1.0435 1.0569 1.0618 1.0770 1.0230 0.9885 1.0236 1.1043 1.2421 1.4771 1.7052 1.8241 1.9257 1.9691 1.9486 1.8946 1.5240 0.9321 0.4628 0.3751 0.4389 0.4805 0.5807 0.6149 0.6316 0.6588 0.6711
1.2585 1.3635 1.4698 1.5027 1.5098 1.5143 1.5761 1.6154 1.5889 1.5846 1.5900 1.5481 1.5531 1.6028 1.6357 1.7595 1.8092 1.7958 1.7610 1.7730 1.8543 1.9170 1.9360 1.8919 1.8722 1.9011 1.9475 1.9665 1.9238 1.8496 1.8088 1.8489 1.8467 1.8335 1.8257 1.8074 1.8004 1.7996 1.7796 1.6303 1.5705 1.3857 1.2405 1.1142 1.0206 1.0040 0.8672 0.8493 0.8652 0.8885 0.8657 0.8758 0.8916 0.8633 0.8170 0.7435 0.7262 0.7577 0.7443 0.7101 0.7028 0.6590 0.6257 0.5942 0.5604 0.5868 0.5791 0.6440 0.6718 0.6260 0.5954 0.5457 0.5236 0.5421 0.5249 0.5172 0.5969 0.6194 0.6134 0.6414 0.6402 0.6696 0.6615 0.6478 0.7162 0.6909 0.6846 0.8650 0.9316 0.8803 0.8480 0.8757 0.8962 0.9977 0.9833 0.9841 1.0890 1.0831 1.0968 1.0928 1.0683 1.0650 1.0657 1.0706 1.0738 1.0902 1.0549 1.0094 1.0418 1.1639 1.3530 1.6048 1.7688 1.8903 1.9518 1.9555 1.9081 1.7124 0.9560 0.4152 0.3270 0.3999 0.4676 0.4680 0.5474 0.6193 0.6387 0.6968 0.7482
1.2940 1.4020 1.5187 1.5237 1.5100 1.5181 1.5705 1.6065 1.5907 1.5893 1.6174 1.5799 1.6102 1.6663 1.7219 1.8122 1.8569 1.8551 1.8473 1.8548 1.9011 1.9255 1.8907 1.8435 1.8430 1.8657 1.9067 1.8852 1.8013 1.7092 1.6998 1.7112 1.7004 1.6788 1.6581 1.6576 1.6603 1.6429 1.4276 1.2158 1.1474 0.9552 0.9856 0.8574 0.8131 0.9043 0.8613 0.8052 0.8560 0.9420 0.8180 0.7507 0.8013 0.7531 0.6981 0.6485 0.6783 0.7295 0.7453 0.7220 0.7124 0.7067 0.6628 0.5918 0.5583 0.6029 0.5762 0.6234 0.7016 0.6414 0.5988 0.5823 0.5484 0.5775 0.5901 0.5561 0.5883 0.6572 0.6111 0.6255 0.6604 0.7082 0.6944 0.6686 0.7097 0.7067 0.6930 0.8550 0.9743 0.9290 0.9183 0.9510 0.9555 1.0165 0.9995 1.0137 1.0867 1.1079 1.1082 1.1044 1.1243 1.0976 1.0759 1.0671 1.0721 1.1125 1.1050 1.0476 1.0857 1.2582 1.5021 1.7127 1.8401 1.9190 1.9402 1.9248 1.8237 1.3116 0.3987 0.3097 0.3776 0.4099 0.4557 0.4574 0.4935 0.6170 0.6899 0.7441 0.7675
1.2860 1.4382 1.5208 1.4814 1.4623 1.4791 1.5305 1.5835 1.5733 1.6010 1.6370 1.6216 1.6668 1.7328 1.7749 1.8248 1.8636 1.8493 1.8393 1.8408 1.8839 1.8542 1.7897 1.7712 1.7726 1.7900 1.7908 1.7113 1.6008 1.5173 1.5310 1.5358 1.5391 1.5091 1.5142 1.4876 1.4612 1.2457 0.9644 0.9503 0.9287 0.8395 0.8520 0.8355 0.8021 0.8706 0.8745 0.7499 0.8281 0.9145 0.7776 0.6506 0.6778 0.6815 0.6651 0.6231 0.6367 0.7147 0.7492 0.7109 0.6981 0.7201 0.6920 0.6186 0.5529 0.5892 0.5896 0.6085 0.6909 0.6848 0.6239 0.5937 0.5531 0.5815 0.6324 0.6277 0.6073 0.6757 0.6572 0.6220 0.6504 0.6824 0.7064 0.7251 0.7260 0.7442 0.7289 0.8431 1.0264 1.0337 0.9922 1.0005 0.9955 1.0193 1.0476 1.0457 1.0734 1.1125 1.1163 1.1389 1.1585 1.1054 1.0737 1.0994 1.1358 1.1662 1.1618 1.1133 1.1840 1.4069 1.6335 1.8016 1.8792 1.9495 1.9225 1.8766 1.5788 0.6529 0.2912 0.3735 0.4101 0.4044 0.4012 0.4243 0.5115 0.7118 0.7668 0.8699 0.9292
1.3116 1.4152 1.4563 1.4185 1.4216 1.4333 1.5031 1.5705 1.5991 1.6213 1.6489 1.6280 1.6723 1.7383 1.7265 1.7636 1.7820 1.7718 1.7472 1.7839 1.8042 1.7369 1.6795 1.6646 1.6409 1.6285 1.5781 1.4736 1.4099 1.4115 1.4046 1.3979 1.4150 1.3807 1.3233 1.2412 1.0597 0.8599 0.8209 0.8897 0.9052 0.8530 0.8206 0.8320 0.8208 0.8507 0.8758 0.7311 0.7463 0.8051 0.7180 0.6112 0.6397 0.6746 0.6548 0.6205 0.6340 0.6799 0.7132 0.7214 0.6974 0.7141 0.7078 0.6390 0.5671 0.5762 0.5721 0.5952 0.7032 0.6732 0.6322 0.6362 0.5930 0.5926 0.6404 0.6346 0.6176 0.6966 0.6632 0.6198 0.6679 0.7001 0.6986 0.7533 0.7769 0.7977 0.7804 0.8728 1.0874 1.1310 1.0775 1.0312 1.0435 1.0571 1.0549 1.0326 1.0487 1.1106 1.1472 1.1863 1.1833 1.1577 1.1717 1.1847 1.1819 1.1961 1.2575 1.2904 1.3547 1.5498 1.7527 1.8626 1.9022 1.9392 1.8938 1.7369 0.8014 0.4210 0.3878 0.4054 0.3932 0.3746 0.3732 0.4937 0.6283 0.7855 0.9272 1.0012 1.0594
1.2638 1.3706 1.4374 1.4144 1.4215 1.4374 1.5067 1.6030 1.6128 1.6155 1.6281 1.5570 1.6073 1.6549 1.5839 1.6039 1.6217 1.5986 1.5881 1.6574 1.6734 1.6084 1.5403 1.4865 1.4571 1.4392 1.3965 1.3570 1.3688 1.3727 1.3662 1.3523 1.3405 1.1987 1.0297 0.8528 0.7429 0.8086 0.8462 0.8556 0.8542 0.8377 0.7887 0.8341 0.8320 0.7975 0.8474 0.7587 0.7110 0.7124 0.6876 0.6148 0.6093 0.6596 0.6813 0.6392 0.6129 0.6882 0.7170 0.6934 0.6823 0.6999 0.7185 0.6600 0.6015 0.5651 0.5869 0.5819 0.6775 0.7210 0.6505 0.6292 0.6153 0.6082 0.6379 0.6701 0.6494 0.6597 0.6842 0.6378 0.6320 0.7191 0.7613 0.7510 0.8151 0.8814 0.8648 0.9361 1.1327 1.2029 1.1133 1.0756 1.0812 1.0556 1.0367 1.0549 1.0821 1.1340 1.2116 1.2649 1.2616 1.2841 1.3349 1.3285 1.3291 1.3825 1.4818 1.5292 1.5787 1.7250 1.8467 1.9090 1.9327 1.9129 1.8198 1.1770 0.3433 0.4187 0.4256 0.3893 0.3626 0.3564 0.4432 0.6416 0.7615 0.8712 1.0402 1.1416 1.1877
1.2482 1.3564 1.4351 1.4155 1.4048 1.4255 1.5105 1.6136 1.6002 1.6097 1.5525 1.4421 1.5180 1.5034 1.3669 1.3939 1.4544 1.4770 1.5215 1.6056 1.6206 1.5280 1.4170 1.2853 1.2722 1.3071 1.3384 1.3546 1.3689 1.4021 1.3354 1.2529 1.0985 0.8430 0.7454 0.6906 0.6775 0.7898 0.8325 0.7580 0.7521 0.8128 0.7641 0.8087 0.8288 0.7404 0.7837 0.7714 0.7461 0.7048 0.6870 0.6291 0.6030 0.6466 0.6594 0.6604 0.6232 0.6588 0.7242 0.7237 0.6764 0.6741 0.7289 0.6688 0.6120 0.5988 0.5736 0.6173 0.6838 0.7251 0.6832 0.6290 0.6292 0.6271 0.6495 0.6684 0.6740 0.6607 0.6754 0.6344 0.6697 0.7601 0.8082 0.8150 0.8577 0.9291 0.9577 1.0024 1.1429 1.2156 1.1449 1.1244 1.1413 1.1157 1.1144 1.1438 1.1309 1.2255 1.3641 1.4205 1.4394 1.5607 1.5959 1.5705 1.6056 1.6632 1.7205 1.7450 1.7504 1.8396 1.9105 1.9472 1.9463 1.8646 1.4101 0.5783 0.3847 0.3944 0.4096 0.3390 0.3335 0.4219 0.5895 0.8054 0.8797 1.0298 1.1726 1.0710 0.9867
1.2093 1.3354 1.4284 1.3853 1.3966 1.4424 1.5410 1.6256 1.6034 1.5691 1.4490 1.3350 1.4114 1.3894 1.2815 1.3445 1.4463 1.4970 1.5553 1.6374 1.6086 1.5117 1.3031 1.1766 1.2245 1.2847 1.3131 1.3096 1.3666 1.3410 1.1519 0.9647 0.7262 0.6326 0.6195 0.6091 0.6507 0.7381 0.7629 0.6785 0.7752 0.7750 0.6869 0.7777 0.8449 0.7459 0.7244 0.7831 0.7548 0.7078 0.7253 0.6642 0.5789 0.6498 0.6779 0.6607 0.6349 0.6641 0.6971 0.7116 0.6973 0.6757 0.7263 0.7012 0.6189 0.5962 0.6033 0.6197 0.6792 0.7517 0.7019 0.6052 0.6357 0.6377 0.6370 0.6688 0.6835 0.6625 0.7138 0.6984 0.6694 0.7670 0.8679 0.8944 0.9511 1.0062 1.0151 1.0203 1.1283 1.2446 1.2540 1.2420 1.2313 1.2160 1.2370 1.2481 1.3393 1.4555 1.5982 1.6700 1.7409 1.8137 1.7856 1.8020 1.8138 1.8387 1.8514 1.8372 1.8391 1.8888 1.9191 1.9228 1.8711 1.4286 0.6234 0.4804 0.3941 0.3416 0.3619 0.3190 0.3422 0.5524 0.7833 0.9302 1.0195 1.1351 1.0412 0.9883 1.0419
1.1754 1.3035 1.4365 1.4077 1.4310 1.4942 1.5821 1.6373 1.5920 1.5144 1.3453 1.2298 1.3625 1.3950 1.2979 1.3542 1.4405 1.5063 1.5653 1.6048 1.5949 1.4989 1.2779 1.1680 1.1517 1.1847 1.2351 1.3276 1.2923 1.1095 0.8776 0.6644 0.6006 0.6140 0.5747 0.5638 0.5944 0.6452 0.6825 0.6617 0.7093 0.7470 0.7103 0.7421 0.7996 0.7741 0.7319 0.7401 0.7603 0.7571 0.7172 0.6805 0.6283 0.6470 0.6831 0.6986 0.6613 0.6570 0.7394 0.7401 0.6940 0.6381 0.7138 0.7103 0.6534 0.6407 0.6258 0.6318 0.6400 0.7371 0.7362 0.6042 0.6236 0.6296 0.6221 0.7021 0.7101 0.6962 0.7430 0.7031 0.7178 0.8435 0.9210 0.9620 1.0329 1.0600 1.0643 1.0384 1.1154 1.2928 1.3943 1.3528 1.3311 1.3835 1.4469 1.5023 1.6097 1.7222 1.8234 1.8700 1.9096 1.9169 1.9033 1.9087 1.8888 1.8805 1.8509 1.8412 1.8384 1.8287 1.8367 1.7762 1.3706 0.7417 0.4941 0.4202 0.3426 0.2923 0.3189 0.3613 0.4523 0.6992 0.9134 1.0596 1.0839 1.0201 0.9805 1.0392 1.0152
1.0723 1.3241 1.5072 1.4407 1.4596 1.5299 1.5995 1.6301 1.5369 1.3766 1.2157 1.1817 1.3613 1.3769 1.2701 1.3093 1.4325 1.5047 1.5581 1.6089 1.6286 1.5105 1.2974 1.1037 1.0580 1.1111 1.2391 1.2512 1.0567 0.8588 0.6377 0.5788 0.5876 0.5763 0.5306 0.5190 0.5443 0.5823 0.6264 0.6346 0.6708 0.7343 0.7189 0.7063 0.7765 0.7452 0.6949 0.7455 0.7507 0.7371 0.7382 0.7044 0.6370 0.6667 0.7121 0.7079 0.6946 0.6962 0.7522 0.7497 0.7849 0.6895 0.6280 0.7255 0.7043 0.6436 0.6339 0.6831 0.6435 0.6963 0.7581 0.6236 0.6120 0.6475 0.6222 0.6915 0.7689 0.7520 0.7565 0.7738 0.7910 0.8893 0.9707 1.0448 1.0771 1.0397 1.0965 1.0930 1.1689 1.4160 1.5173 1.4863 1.5142 1.6156 1.6828 1.7533 1.8329 1.8911 1.9369 1.9696 1.9780 1.9620 1.9495 1.9174 1.8697 1.8123 1.7800 1.7689 1.7059 1.6155 1.5694 1.2574 0.7863 0.5858 0.4233 0.3556 0.3291 0.2909 0.3054 0.4674 0.6437 0.8382 1.0130 1.0614 1.0335 0.9965 1.0252 1.0203 0.9678
1.1041 1.4063 1.5372 1.4512 1.4847 1.5529 1.6035 1.5831 1.4309 1.2628 1.1727 1.1417 1.3114 1.3344 1.2998 1.3883 1.5188 1.5998 1.6438 1.7130 1.6879 1.5318 1.2991 1.0741 1.0002 1.0279 1.2012 1.1051 0.8031 0.6532 0.5912 0.5337 0.5077 0.5177 0.4670 0.4732 0.5073 0.5498 0.5974 0.6265 0.6250 0.6674 0.7131 0.7054 0.7275 0.7286 0.6736 0.6947 0.7375 0.7452 0.7059 0.7072 0.6859 0.6600 0.7117 0.7421 0.7459 0.7249 0.7666 0.7754 0.7889 0.7471 0.6533 0.6869 0.7312 0.6910 0.6566 0.7125 0.6991 0.6582 0.7217 0.6699 0.6457 0.6658 0.6439 0.7129 0.7938 0.8311 0.8033 0.8404 0.8879 0.9221 1.0133 1.0609 1.0571 1.0999 1.2106 1.2192 1.3493 1.4777 1.6316 1.6700 1.7501 1.8216 1.8517 1.9092 1.9335 1.9588 1.9906 2.0014 1.9817 1.9473 1.9011 1.8098 1.7006 1.6175 1.5775 1.5071 1.3422 1.2129 1.0175 0.8271 0.6706 0.4804 0.3513 0.2956 0.3585 0.3118 0.3371 0.5844 0.8082 0.9289 1.0225 1.0620 1.0516 1.0110 1.0152 1.0227 0.9825
1.1972 1.4514 1.5499 1.4730 1.5027 1.5464 1.5876 1.5428 1.3400 1.2010 1.1247 1.1183 1.3289 1.4259 1.4656 1.5312 1.6475 1.7158 1.7495 1.7792 1.6832 1.4978 1.2703 1.0662 0.9695 1.0101 1.1279 0.8674 0.5844 0.5371 0.5246 0.4958 0.4696 0.4760 0.4480 0.4566 0.4941 0.5122 0.5615 0.6069 0.6058 0.6776 0.6773 0.6399 0.6899 0.6878 0.6471 0.6725 0.7060 0.7288 0.7124 0.6965 0.6894 0.6721 0.7219 0.7695 0.7854 0.7598 0.7908 0.7559 0.7800 0.7794 0.6896 0.7136 0.7474 0.7018 0.6531 0.7213 0.7256 0.6759 0.7318 0.6871 0.6694 0.7271 0.7072 0.7427 0.8301 0.8687 0.8684 0.9332 0.9604 0.9627 0.9933 1.0762 1.1137 1.1708 1.3274 1.3882 1.4301 1.5368 1.8448 1.8331 1.8924 1.9230 1.9431 1.9717 1.9648 1.9818 1.9673 1.9343 1.8864 1.7934 1.6508 1.4898 1.3549 1.2753 1.2035 1.0791 0.9680 0.8428 0.7014 0.7145 0.6246 0.3307 0.3139 0.3259 0.3522 0.3553 0.4500 0.7286 0.9118 0.9861 1.0337 1.0480 1.0356 1.0410 0.9460 0.8102 0.7275
1.2778 1.4733 1.5547 1.4758 1.4821 1.5477 1.5835 1.4971 1.2957 1.1864 1.1132 1.2081 1.4787 1.6000 1.6324 1.6874 1.7625 1.7826 1.7711 1.7448 1.6138 1.4285 1.2281 1.0914 0.8857 0.9258 0.8518 0.6530 0.5489 0.4436 0.4221 0.4474 0.4487 0.4664 0.4637 0.4561 0.4963 0.5142 0.5531 0.5937 0.5932 0.6453 0.6675 0.6199 0.6375 0.6571 0.6299 0.6211 0.6719 0.7348 0.7084 0.6872 0.7141 0.6701 0.7215 0.8047 0.8098 0.7633 0.7940 0.8100 0.7841 0.7860 0.7151 0.6968 0.7469 0.7534 0.6897 0.7171 0.7451 0.6839 0.7286 0.7369 0.7113 0.8053 0.7617 0.7643 0.8999 0.9386 0.9402 0.9851 0.9821 0.9384 1.0131 1.1464 1.2117 1.3622 1.4875 1.5631 1.5286 1.6845 2.0113 1.9460 1.9842 1.9767 1.9771 1.9719 1.9304 1.8648 1.7531 1.6717 1.5801 1.4044 1.2660 1.1288 1.0445 0.9594 0.8467 0.8029 0.8700 0.7824 0.5881 0.5926 0.6232 0.4074 0.3269 0.3489 0.3652 0.4442 0.5740 0.8410 0.9867 0.9803 1.0039 1.0189 1.0217 0.8215 0.7867 1.0714 1.2654
1.2986 1.4942 1.5557 1.4787 1.5063 1.5906 1.5822 1.4728 1.2942 1.1909 1.2548 1.4846 1.7102 1.7779 1.7804 1.7940 1.7977 1.7684 1.7073 1.6435 1.5023 1.3237 1.1660 1.0143 0.8395 0.8211 0.5916 0.5422 0.4474 0.3947 0.4049 0.4087 0.4215 0.4548 0.4837 0.4823 0.5116 0.5160 0.5432 0.5640 0.5858 0.6229 0.6334 0.6235 0.6254 0.6172 0.5976 0.5974 0.6336 0.7128 0.7360 0.6742 0.6919 0.7119 0.7405 0.7929 0.7888 0.8119 0.8246 0.7965 0.7996 0.8203 0.7612 0.6848 0.7547 0.7910 0.6948 0.7239 0.7633 0.7272 0.7373 0.7714 0.8036 0.8630 0.8080 0.8313 0.9547 0.9833 0.9792 0.9969 1.0049 1.0316 1.1261 1.3081 1.4626 1.6113 1.6825 1.7642 1.5892 1.8101 2.0399 2.0053 2.0087 1.9474 1.9185 1.8062 1.6096 1.3772 1.2364 1.2232 1.2088 1.1471 1.0260 0.9403 0.8345 0.7666 0.7422 0.7460 0.7862 0.7308 0.5924 0.5142 0.5410 0.4622 0.3622 0.3334 0.3850 0.5823 0.7305 0.9149 1.0024 0.9713 0.9574 0.9746 0.8016 0.8616 1.0535 1.1302 1.1954
1.3746 1.5283 1.5604 1.5233 1.5528 1.6049 1.5523 1.4470 1.3115 1.4030 1.5869 1.7715 1.8729 1.8888 1.8408 1.8015 1.7558 1.6794 1.5758 1.5211 1.4242 1.2040 1.0972 1.0120 0.8586 0.5592 0.3421 0.3615 0.3863 0.3906 0.4040 0.4043 0.3927 0.4030 0.4507 0.4907 0.5313 0.5328 0.5333 0.5535 0.5701 0.5780 0.5802 0.5886 0.6033 0.6122 0.5584 0.5459 0.6129 0.6761 0.7348 0.6922 0.6779 0.7030 0.7247 0.7917 0.8006 0.8084 0.8353 0.8298 0.7893 0.8114 0.8210 0.7020 0.7321 0.8433 0.7451 0.7419 0.7957 0.7908 0.7667 0.7992 0.8931 0.9235 0.8614 0.8966 0.9904 0.9824 1.0089 1.0638 1.1150 1.2085 1.3770 1.5877 1.7214 1.8297 1.8766 1.8772 1.5218 1.8414 1.9182 2.0700 1.9040 1.7656 1.5757 1.2334 1.0003 0.9122 0.9220 0.9984 1.0752 1.1001 1.0467 0.9637 0.7732 0.6383 0.6642 0.7111 0.7424 0.7022 0.6576 0.5330 0.5034 0.4849 0.3806 0.3343 0.4272 0.6991 0.8683 0.9479 0.9497 0.9343 0.9195 0.8220 0.9481 1.1137 1.1057 1.1869 1.1156
1.4500 1.5577 1.5858 1.5397 1.5551 1.5720 1.4923 1.4261 1.4249 1.6358 1.7914 1.9000 1.9121 1.8788 1.7805 1.7070 1.6394 1.5216 1.4421 1.4275 1.3136 1.1329 1.0940 1.0017 0.6238 0.3155 0.2594 0.3428 0.4066 0.4350 0.4345 0.3976 0.3779 0.3797 0.4108 0.4591 0.5103 0.5203 0.5400 0.5451 0.5409 0.5531 0.5607 0.5179 0.5460 0.5853 0.5562 0.4983 0.5615 0.6363 0.7297 0.7037 0.6526 0.7181 0.7182 0.7608 0.8051 0.8211 0.8288 0.8316 0.7949 0.8083 0.8667 0.7585 0.7596 0.8758 0.7713 0.7695 0.8227 0.7768 0.7987 0.8712 0.9379 0.9970 0.9506 0.9106 0.9402 1.0336 1.1311 1.1761 1.3318 1.5119 1.6744 1.8093 1.9106 1.9668 1.9527 1.8502 1.2823 1.8013 1.6501 2.0368 1.3470 1.2155 0.9395 0.8414 0.8086 0.8115 0.8607 0.9445 1.0729 1.1783 1.1367 0.9289 0.7642 0.6559 0.6200 0.6575 0.7216 0.7134 0.6708 0.6250 0.5301 0.5197 0.4607 0.4282 0.5731 0.8276 0.9043 0.8484 0.9167 0.8364 0.8549 1.0239 1.1131 1.0940 1.1612 1.1359 1.0860
1.5102 1.5826 1.5814 1.5276 1.5355 1.5054 1.4404 1.4184 1.5520 1.7510 1.8629 1.8623 1.8391 1.7582 1.6115 1.5426 1.4409 1.3604 1.3415 1.2982 1.3108 1.1952 1.0433 0.7145 0.3698 0.2867 0.2851 0.3728 0.4516 0.5108 0.5047 0.4411 0.3777 0.3707 0.3876 0.4453 0.5016 0.4980 0.5148 0.5484 0.5397 0.5129 0.5804 0.5204 0.4735 0.5529 0.5663 0.4989 0.5143 0.6075 0.7127 0.7088 0.6924 0.7057 0.6720 0.7596 0.8227 0.8164 0.8370 0.8334 0.8203 0.8386 0.9028 0.8114 0.7864 0.8793 0.8254 0.8261 0.8354 0.7961 0.8343 0.9066 0.9996 1.0436 0.9924 0.9420 0.9648 1.1532 1.2601 1.4034 1.6149 1.7516 1.8629 1.9496 2.0018 2.0056 1.8939 1.6189 0.9802 0.8865 1.6604 1.9150 0.6287 0.7952 0.7165 0.7499 0.7921 0.8041 0.8181 0.9173 1.1159 1.2621 1.1757 0.8856 0.7771 0.7033 0.6038 0.6107 0.6810 0.7225 0.6848 0.6661 0.5882 0.5473 0.5696 0.5971 0.7061 0.8223 0.8803 0.9430 0.8065 0.8510 0.9858 1.1091 1.1931 1.1498 1.1075 0.8931 0.7278
1.5506 1.5959 1.5736 1.5363 1.5145 1.4703 1.4195 1.4840 1.6798 1.8328 1.8545 1.7865 1.7449 1.5815 1.4269 1.3678 1.3138 1.3155 1.2784 1.3648 1.3787 1.0292 0.6790 0.4375 0.3332 0.3574 0.3584 0.3964 0.4640 0.5585 0.5666 0.5065 0.4072 0.3647 0.3653 0.4232 0.4964 0.4819 0.5001 0.5448 0.5453 0.5056 0.5292 0.5459 0.4848 0.5035 0.5593 0.5299 0.5117 0.5748 0.6989 0.7163 0.6771 0.6961 0.6926 0.7657 0.8079 0.8161 0.8495 0.8421 0.8771 0.8787 0.9238 0.8744 0.7975 0.8728 0.8668 0.8671 0.8829 0.8609 0.8816 0.9404 1.0259 1.0688 1.0695 1.0434 1.0370 1.2726 1.4913 1.6648 1.7869 1.8944 1.9653 2.0032 2.0176 1.9105 1.6010 1.2012 0.8485 0.7419 1.8877 1.6294 0.5018 0.7162 0.7154 0.7483 0.7738 0.7935 0.8300 0.9093 1.1488 1.2964 1.1659 0.8974 0.8078 0.7410 0.6107 0.5962 0.6564 0.7186 0.7008 0.6908 0.6436 0.5839 0.7077 0.7928 0.7368 0.8169 0.9532 0.8472 0.8878 1.0093 1.0869 1.2204 1.1316 0.9902 0.7681 0.7361 0.7674
1.5992 1.6360 1.6131 1.5638 1.5113 1.4734 1.4696 1.6300 1.8082 1.8788 1.8366 1.7340 1.6262 1.4166 1.3107 1.3572 1.3312 1.3280 1.3169 1.2944 1.0363 0.5962 0.4326 0.4327 0.4018 0.4201 0.3943 0.4121 0.4461 0.5719 0.6354 0.5508 0.4431 0.3937 0.3734 0.3992 0.4970 0.5008 0.4795 0.5321 0.5534 0.5159 0.5105 0.5222 0.4955 0.4838 0.5422 0.5301 0.5160 0.5988 0.6731 0.7319 0.7230 0.6896 0.6756 0.7284 0.8074 0.8108 0.8772 0.8892 0.9063 0.9102 0.9247 0.9351 0.8391 0.8858 0.9289 0.9208 0.9248 0.9295 0.9646 0.9256 1.0165 1.1290 1.1721 1.1691 1.2641 1.4899 1.6616 1.7930 1.9105 1.9841 2.0049 2.0131 1.9230 1.5867 1.2334 1.0287 0.8199 0.5956 1.6999 1.2609 0.6195 0.6753 0.7143 0.7314 0.7705 0.8034 0.8256 0.9514 1.1759 1.2561 1.1405 0.9171 0.8272 0.7877 0.6597 0.6041 0.6352 0.6964 0.7240 0.7195 0.7208 0.7009 0.7627 0.8336 0.8807 0.7962 0.8381 1.0667 1.0443 1.0397 1.2184 1.0850 0.8472 0.7163 0.7720 0.8418 0.8798
1.6588 1.6947 1.6362 1.5521 1.5195 1.5083 1.5658 1.7541 1.8705 1.8712 1.7809 1.5879 1.4771 1.3417 1.3347 1.3059 1.1706 1.1043 0.9458 0.8929 0.6773 0.4866 0.4349 0.4580 0.4515 0.4624 0.4311 0.4241 0.4406 0.5252 0.6571 0.6180 0.4810 0.3940 0.3798 0.3910 0.4655 0.5036 0.4970 0.5136 0.5696 0.5363 0.4827 0.4855 0.4541 0.4845 0.5262 0.5197 0.5116 0.5909 0.6467 0.7659 0.7552 0.6952 0.7010 0.7071 0.7876 0.8450 0.9100 0.9052 0.9114 0.9433 0.9899 0.9826 0.9031 0.9604 0.9660 0.9555 0.9755 0.9915 0.9650 0.9810 1.1070 1.2463 1.3401 1.4018 1.5200 1.6389 1.8054 1.9124 1.9749 2.0198 2.0016 1.9095 1.5814 1.2072 1.0226 0.8448 0.6131 0.2972 0.3737 1.1414 1.1178 0.6119 0.7079 0.7313 0.7548 0.8033 0.8757 1.0030 1.1308 1.1975 1.1407 0.9740 0.8487 0.7973 0.6919 0.6220 0.6462 0.7206 0.7700 0.7537 0.7554 0.7326 0.8021 0.9613 0.8810 0.9394 1.0020 1.0087 1.1820 1.2059 0.9766 0.7564 0.7331 0.8242 0.8738 0.9546 1.0422
1.6987 1.7397 1.6211 1.5455 1.5331 1.5426 1.6681 1.8429 1.8863 1.8238 1.6090 1.4308 1.4065 1.2913 1.1483 0.9494 0.8789 0.8069 0.6948 0.6902 0.5676 0.4873 0.4452 0.4583 0.4729 0.4768 0.4645 0.4147 0.4422 0.4862 0.6389 0.6321 0.5211 0.4111 0.3737 0.3549 0.4281 0.4722 0.4778 0.5155 0.5714 0.5601 0.4868 0.5451 0.4659 0.3826 0.5091 0.5585 0.5066 0.5846 0.6580 0.7720 0.7629 0.7363 0.7252 0.6730 0.7920 0.8828 0.9053 0.9225 0.9718 1.0114 1.0327 1.0539 0.9985 0.9772 0.9869 1.0048 1.0303 1.0523 1.0582 1.0886 1.2531 1.4630 1.5586 1.6335 1.6910 1.8065 1.9211 1.9703 2.0041 1.9964 1.8864 1.5466 1.0482 0.8959 0.7305 0.6086 0.6096 0.2878 0.3592 0.7699 1.0358 0.6605 0.7164 0.7242 0.7750 0.8492 0.9409 1.0244 1.1026 1.1885 1.1272 0.9813 0.8532 0.8032 0.7310 0.6451 0.6562 0.7388 0.7882 0.7778 0.8312 0.8985 0.8514 0.9050 1.0204 1.0044 1.0508 1.2665 1.1169 0.8787 0.7763 0.7841 0.8437 0.9463 1.0700 1.1015 1.0749
1.7914 1.7771 1.6038 1.5418 1.5495 1.6151 1.7544 1.8552 1.8271 1.6602 1.4093 1.3118 1.2783 1.1326 0.8422 0.6967 0.6913 0.6986 0.6435 0.5371 0.4828 0.4750 0.4502 0.4464 0.4625 0.4745 0.4723 0.4099 0.4272 0.4461 0.6063 0.6509 0.5403 0.4260 0.3858 0.3479 0.3810 0.4449 0.4513 0.4756 0.5606 0.5701 0.4954 0.5327 0.5519 0.4231 0.4742 0.5849 0.5704 0.5837 0.6462 0.7657 0.7960 0.7647 0.7348 0.7145 0.8003 0.8726 0.9205 0.9513 1.0461 1.0934 1.0864 1.0866 1.0497 0.9767 0.9805 1.0549 1.1027 1.1122 1.2195 1.3176 1.5029 1.6498 1.7382 1.7849 1.8322 1.9174 1.9853 2.0086 1.9952 1.8642 1.4978 0.8499 0.6823 0.7828 0.6609 0.5406 0.6196 0.5907 0.3352 0.4221 0.8572 0.6274 0.6840 0.7306 0.8361 0.9219 1.0168 1.0861 1.1284 1.1408 1.0489 0.9672 0.8572 0.7874 0.7644 0.7137 0.7048 0.7005 0.8101 0.9332 0.8234 0.8983 1.0777 0.8333 0.9598 1.1881 1.2056 1.0613 0.8332 0.7887 0.8742 0.9391 0.9836 1.0925 0.9741 0.8589 0.9210
1.8409 1.7927 1.6122 1.5701 1.6022 1.6733 1.7738 1.7884 1.6589 1.4354 1.2382 1.1265 1.1439 1.0682 0.7105 0.5146 0.5960 0.6428 0.5051 0.3964 0.4467 0.4877 0.4741 0.4300 0.4447 0.4660 0.4928 0.4190 0.4183 0.4309 0.5500 0.6502 0.5627 0.4385 0.3860 0.3491 0.3560 0.4147 0.4273 0.4417 0.5145 0.5596 0.5160 0.5211 0.5522 0.4800 0.4757 0.5947 0.6025 0.6120 0.7120 0.7478 0.8091 0.8170 0.7504 0.7540 0.8110 0.9111 0.9705 1.0168 1.0966 1.0943 1.0963 1.0890 1.0906 1.0137 0.9979 1.1557 1.2035 1.2618 1.4456 1.5623 1.7038 1.8009 1.8476 1.8894 1.9216 1.9770 2.0012 1.9645 1.8333 1.3849 0.7804 0.6160 0.6310 0.6759 0.6874 0.6051 0.6231 0.6359 0.5489 0.3727 0.7069 0.7847 0.7267 0.7910 0.8869 1.0118 1.0900 1.1121 1.1054 1.0570 1.0014 0.9431 0.8279 0.7707 0.7593 0.7430 0.8259 0.8447 0.8496 0.9820 1.0413 0.8698 0.8154 0.9370 1.1010 1.2182 1.0698 0.8045 0.8966 0.9316 0.9665 1.0307 0.9629 0.8824 0.8322 0.8140 0.8269
1.8574 1.8174 1.6117 1.5733 1.6407 1.7188 1.7478 1.6511 1.4732 1.3041 1.0662 1.0200 1.1564 0.9926 0.5051 0.4375 0.5352 0.5207 0.4293 0.3587 0.3811 0.4389 0.4748 0.4136 0.4206 0.4371 0.4877 0.4545 0.3961 0.4367 0.5165 0.6238 0.5844 0.4696 0.3944 0.3535 0.3212 0.3833 0.4025 0.4140 0.4791 0.5314 0.5047 0.5111 0.5761 0.5302 0.5101 0.5991 0.6073 0.6539 0.7478 0.7529 0.8528 0.8676 0.8277 0.8308 0.8677 0.9460 1.0453 1.0710 1.0508 1.0750 1.0903 1.1348 1.1816 1.0825 1.0991 1.2597 1.3501 1.4950 1.6309 1.7389 1.8087 1.8626 1.8804 1.9163 1.9265 1.9266 1.8432 1.6290 1.1513 0.7938 0.6742 0.5914 0.5881 0.6313 0.6680 0.6356 0.6186 0.6475 0.6267 0.5210 0.5662 0.8036 0.8306 0.8610 0.9645 1.0655 1.1099 1.1131 1.0647 0.9510 0.9589 0.9238 0.8088 0.7940 0.8491 0.8202 0.7928 0.9696 1.0733 0.8554 0.9289 1.1463 1.1096 0.9680 0.8864 1.0386 1.0358 0.9603 0.9697 0.9192 0.9462 0.9511 0.8673 0.8697 0.9469 1.0354 1.1169
1.8487 1.7438 1.5024 1.5343 1.6265 1.6544 1.6161 1.4854 1.3725 1.1635 1.0143 1.0793 1.1309 0.7872 0.3886 0.3540 0.4464 0.4954 0.4690 0.3994 0.3628 0.3764 0.4202 0.3775 0.3596 0.3819 0.4253 0.4785 0.4154 0.3907 0.4625 0.5948 0.5985 0.4915 0.4069 0.3802 0.3050 0.3291 0.3822 0.3784 0.4535 0.5332 0.5368 0.5203 0.6340 0.5963 0.4864 0.6152 0.6366 0.7242 0.8106 0.8067 0.9238 0.9638 0.9278 0.9250 0.9290 1.0167 1.0654 1.0065 1.0346 1.1156 1.1572 1.2000 1.2331 1.2011 1.2029 1.3884 1.5533 1.6459 1.7535 1.8185 1.8536 1.8671 1.8757 1.8666 1.8030 1.6233 1.2751 0.9513 0.7931 0.7331 0.6479 0.6043 0.5845 0.6009 0.6586 0.6284 0.6021 0.6471 0.6759 0.6318 0.5664 0.7924 0.9564 0.9530 1.0119 1.0939 1.1004 1.0663 1.0116 0.9043 0.8972 0.9120 0.8992 0.8204 0.7830 0.9484 0.9981 0.8403 1.0345 1.1937 1.1706 1.1878 1.2362 1.0386 0.8538 0.8455 1.0090 1.0003 0.9042 0.9294 0.8857 0.9622 1.0248 1.1228 1.0776 0.9470 0.9410
1.8488 1.6726 1.4954 1.4779 1.5204 1.5310 1.4771 1.3865 1.2523 1.1084 1.1081 1.1134 0.9644 0.4851 0.2508 0.2556 0.3787 0.4620 0.4896 0.4250 0.3563 0.3403 0.3790 0.3606 0.3159 0.3295 0.3474 0.3970 0.4027 0.3625 0.3974 0.5144 0.5727 0.5093 0.4070 0.3784 0.3334 0.2959 0.3616 0.3913 0.4494 0.5241 0.5612 0.5704 0.6310 0.6162 0.5822 0.6588 0.7393 0.8173 0.8259 0.9153 1.0498 1.0028 0.9558 0.9700 0.9461 0.9462 1.0157 1.0781 1.0970 1.1485 1.2268 1.2404 1.2713 1.3049 1.3482 1.5317 1.6748 1.7559 1.8405 1.8678 1.8547 1.8176 1.7569 1.6294 1.3710 0.9630 0.7973 0.7703 0.7164 0.7085 0.6583 0.5770 0.5796 0.5853 0.6243 0.6441 0.6136 0.6272 0.7243 0.7415 0.6028 0.8232 1.0482 1.0282 1.0317 1.0765 1.0538 1.0139 0.9842 0.9323 0.9174 0.9124 0.8247 0.9027 0.7745 0.8360 1.2136 1.2027 1.1905 1.2060 1.4331 1.6053 1.3784 0.9442 0.7494 0.5651 0.8004 0.9530 0.9755 0.9876 1.0781 1.1705 1.1110 1.0169 0.9393 0.9891 0.9500
1.8124 1.6275 1.4663 1.3985 1.4396 1.4608 1.4330 1.3207 1.1754 1.2183 1.1109 0.9257 0.5851 0.3119 0.2126 0.2605 0.3465 0.4262 0.4685 0.4253 0.3204 0.2932 0.3356 0.3306 0.2910 0.3165 0.3239 0.3722 0.3680 0.3217 0.3150 0.3961 0.4953 0.4994 0.4229 0.3711 0.3694 0.3292 0.3613 0.4342 0.4977 0.5614 0.5992 0.6168 0.6283 0.6482 0.6937 0.7246 0.8092 0.8952 0.9091 0.9972 0.9879 0.9431 0.9723 0.9781 0.9382 0.9822 1.0884 1.1568 1.1565 1.2009 1.2664 1.2573 1.3394 1.4387 1.4870 1.6282 1.7705 1.8328 1.8541 1.8243 1.7605 1.6087 1.3759 1.1758 0.9380 0.7621 0.6706 0.6505 0.6783 0.6855 0.6481 0.5684 0.5592 0.5759 0.6060 0.6343 0.6375 0.6610 0.7723 0.8377 0.7338 0.8244 1.0518 1.0692 1.0266 1.0411 1.0199 0.9993 0.9949 0.8808 0.8669 1.0230 0.7277 0.7798 1.2474 1.2849 1.1298 1.1789 1.3555 1.6927 1.8221 1.4619 0.6798 0.7103 0.6729 0.5545 0.8193 1.1171 1.0947 1.1726 1.1660 1.0182 0.8926 0.9879 1.1099 1.6816 1.5921
1.7016 1.5674 1.4247 1.3609 1.4075 1.4586 1.4512 1.3007 1.2812 1.2126 0.9125 0.5837 0.3131 0.2643 0.2623 0.3167 0.3422 0.3927 0.4535 0.4424 0.3281 0.2753 0.3231 0.3379 0.2689 0.2793 0.3039 0.3528 0.3770 0.3110 0.2984 0.3485 0.4057 0.4580 0.4500 0.3904 0.4184 0.4105 0.4408 0.5133 0.5525 0.5898 0.6478 0.6752 0.6992 0.7327 0.7862 0.8174 0.8699 0.8887 0.9513 0.9722 0.9410 1.0141 1.0402 1.0334 1.0149 1.0484 1.1410 1.2077 1.2006 1.2254 1.2933 1.3285 1.4332 1.5355 1.5796 1.7245 1.8088 1.8208 1.7885 1.7106 1.5094 1.1163 0.8935 0.9027 0.8076 0.6840 0.6345 0.6059 0.6362 0.6645 0.6213 0.5402 0.5567 0.5830 0.5999 0.6710 0.7065 0.6940 0.8091 0.9311 0.8405 0.8068 1.0124 1.0883 1.0555 1.0236 1.0266 0.9761 0.9710 1.0395 0.7850 0.8493 1.2043 1.2757 1.1467 1.1246 1.2558 1.5482 1.8418 1.8196 1.1444 0.5252 0.5550 0.3333 0.4015 0.7296 1.3272 1.4839 1.1386 1.1144 0.9651 0.9333 1.2087 1.0967 1.8812 1.6759 1.4990
1.6297 1.5320 1.3986 1.3630 1.4435 1.5124 1.4806 1.3931 1.3092 1.0186 0.5245 0.3351 0.2758 0.2708 0.3188 0.3354 0.3369 0.3599 0.4266 0.4295 0.3231 0.2557 0.2684 0.3165 0.2480 0.2325 0.2740 0.3132 0.3712 0.3289 0.2910 0.3172 0.3761 0.4560 0.5049 0.4483 0.4506 0.5109 0.5457 0.5832 0.6179 0.6581 0.7372 0.8013 0.7976 0.8092 0.8178 0.8616 0.8879 0.9239 0.9721 0.9845 1.0264 1.0509 1.0833 1.0962 1.0833 1.1006 1.1617 1.2072 1.2328 1.2634 1.3421 1.3915 1.5199 1.6310 1.6740 1.7699 1.7817 1.7718 1.6741 1.3833 0.9825 0.7739 0.7415 0.8035 0.7355 0.6318 0.6083 0.5789 0.6046 0.6372 0.6241 0.5448 0.5329 0.5997 0.6302 0.7064 0.7583 0.8081 0.8541 0.9088 0.8869 0.9040 1.0137 1.0342 1.0686 1.0478 1.0431 1.0848 0.8810 0.9251 1.1913 1.2614 1.1203 1.1153 1.2090 1.4436 1.7489 1.8519 1.5555 0.7329 0.5757 0.6215 0.6804 0.6114 0.3557 0.5364 1.4537 1.4187 1.2502 1.0711 1.2149 1.3725 1.5089 1.6989 1.5254 0.8646 1.6390
1.5690 1.4836 1.4050 1.4106 1.4910 1.5541 1.5341 1.4314 1.1223 0.6479 0.2958 0.2921 0.3220 0.3204 0.3570 0.3346 0.3119 0.3406 0.4244 0.4288 0.3160 0.2254 0.2295 0.2856 0.2491 0.2200 0.2758 0.3082 0.3698 0.3383 0.3286 0.3633 0.4069 0.5054 0.5406 0.5304 0.5711 0.5943 0.6289 0.6922 0.7168 0.7660 0.8385 0.8552 0.8818 0.8939 0.8590 0.9336 0.9036 0.9476 0.9968 1.0510 1.0667 1.0951 1.1241 1.1287 1.1135 1.1144 1.1653 1.2373 1.2608 1.2846 1.3749 1.4560 1.5647 1.6418 1.6852 1.7337 1.7280 1.6620 1.3442 0.9019 0.7745 0.7073 0.6636 0.7268 0.6947 0.5811 0.5662 0.5676 0.5771 0.6009 0.6185 0.5728 0.5432 0.6024 0.6833 0.7480 0.7823 0.8335 0.8648 0.9326 0.9757 0.9577 0.9915 1.0643 1.0879 1.0375 0.9273 1.0135 1.1488 1.2286 1.1601 1.0998 1.0727 1.2285 1.5543 1.7365 1.6057 0.9369 0.5896 0.6251 0.7058 0.8424 0.8609 0.7518 0.6262 0.8785 1.3609 1.5695 1.4473 1.4032 1.5350 1.5537 1.6273 1.6444 1.5541 1.8876 1.6851
1.4771 1.4320 1.4149 1.4248 1.5197 1.5567 1.5524 1.3359 0.6929 0.3545 0.2802 0.3454 0.3572 0.3631 0.3618 0.3327 0.2892 0.3171 0.4204 0.4253 0.3261 0.2245 0.2116 0.2679 0.2973 0.2528 0.2849 0.3328 0.3765 0.3712 0.3869 0.4456 0.4889 0.5379 0.5848 0.6072 0.6678 0.7007 0.7484 0.7654 0.7824 0.8403 0.9241 0.9308 0.9629 0.8926 0.9596 0.9647 0.9145 0.9805 1.0605 1.0920 1.1034 1.1284 1.1342 1.1381 1.1298 1.1336 1.1859 1.2443 1.2586 1.2951 1.3787 1.4457 1.5379 1.6170 1.6554 1.6503 1.6096 1.3869 0.9169 0.7067 0.6996 0.6357 0.6132 0.6924 0.6755 0.5658 0.5204 0.5237 0.5752 0.5801 0.5916 0.6127 0.5874 0.6615 0.7060 0.7551 0.7953 0.8349 0.9033 0.9556 0.9812 1.0031 1.0599 1.0175 0.9203 1.0076 1.1265 1.2071 1.1934 1.1336 1.0497 1.0357 1.2327 1.5524 1.5940 1.1756 0.7475 0.6659 0.7126 0.8545 0.9877 1.0099 1.0153 0.9856 1.0002 1.1705 1.7206 1.7509 1.5101 1.6447 1.6097 1.5731 1.5441 1.5716 1.6479 1.8859 1.9097
1.4086 1.4006 1.4126 1.4258 1.4813 1.5240 1.5501 1.0796 0.3000 0.2773 0.3131 0.3732 0.3860 0.3659 0.3507 0.3021 0.2492 0.3095 0.4116 0.4230 0.3372 0.2459 0.2169 0.2961 0.3379 0.2970 0.3164 0.3998 0.4082 0.4121 0.4506 0.5024 0.5471 0.6012 0.6520 0.7363 0.7392 0.7969 0.8413 0.8368 0.8610 0.9353 0.9552 0.9451 0.9919 0.9598 0.9963 0.9405 0.9710 1.0096 1.0796 1.1100 1.1240 1.1319 1.1260 1.1412 1.1476 1.1556 1.1901 1.2314 1.2509 1.2949 1.3728 1.4624 1.5582 1.6138 1.6011 1.5411 1.3776 1.0377 0.7469 0.6233 0.6410 0.6549 0.5817 0.6383 0.6739 0.5789 0.5177 0.4953 0.5472 0.5892 0.6143 0.6635 0.6162 0.6304 0.7167 0.7648 0.8324 0.8978 0.9475 0.9817 1.0173 0.9615 0.9215 1.0822 1.1204 1.1271 1.1811 1.1980 1.1206 1.0403 1.0651 1.1893 1.4487 1.4726 0.9588 0.6822 0.7535 0.8896 1.0506 1.0991 1.0869 1.2044 1.2636 1.2455 1.3511 1.6155 1.7833 1.6112 1.6985 1.7640 1.6509 1.6503 1.9969 2.0658 2.1504 2.1136 2.0063
1.3186 1.3687 1.3925 1.3585 1.4175 1.5394 1.5667 0.6470 0.1718 0.2877 0.3317 0.3606 0.3752 0.3508 0.3259 0.3006 0.2360 0.2587 0.4027 0.4075 0.3342 0.2870 0.2441 0.3050 0.3857 0.3712 0.3953 0.4620 0.4682 0.4790 0.5133 0.5693 0.6157 0.6643 0.7297 0.7875 0.8509 0.9286 0.8911 0.8776 0.9210 0.9575 0.9699 1.0114 1.0145 0.9787 1.0067 1.0069 0.9931 1.0336 1.0758 1.1060 1.1201 1.1279 1.1381 1.1555 1.1589 1.1755 1.2035 1.2379 1.2744 1.3328 1.4133 1.5168 1.5936 1.5903 1.5337 1.4048 1.1025 0.7653 0.6173 0.5865 0.6198 0.6404 0.5768 0.6099 0.6714 0.6051 0.5442 0.4906 0.5467 0.6075 0.5977 0.6406 0.6950 0.7199 0.7616 0.8305 0.8645 0.9361 0.9856 0.8370 0.9642 1.1363 1.1082 1.1278 1.1396 1.1854 1.1589 1.1127 1.0685 1.0948 1.1912 1.3249 1.3565 1.0360 0.7262 0.7568 0.9870 1.1426 1.1989 1.2521 1.3664 1.4149 1.4333 1.5423 1.6712 1.7666 1.7429 1.7444 1.8198 1.9917 2.0336 2.1900 2.2008 2.0849 1.9349 1.7012 1.6221
1.2473 1.3237 1.3304 1.2951 1.4263 1.5791 1.5133 0.1803 0.2670 0.2839 0.3209 0.3221 0.3218 0.2974 0.2942 0.2767 0.2206 0.2423 0.3751 0.4114 0.3341 0.3040 0.2902 0.3485 0.4341 0.4412 0.4823 0.5370 0.5519 0.5585 0.5862 0.6224 0.6726 0.7174 0.7743 0.8508 0.9326 0.9375 0.8826 0.8778 0.9629 0.9919 1.0229 1.0415 1.0293 1.0468 1.0557 1.0251 1.0188 1.0181 1.0289 1.0967 1.1254 1.1416 1.1584 1.1739 1.1933 1.2148 1.2367 1.2645 1.3120 1.3801 1.4610 1.5589 1.5906 1.5262 1.4004 1.1835 0.7802 0.5931 0.5929 0.5930 0.6009 0.6277 0.5839 0.5661 0.6793 0.6678 0.5682 0.5094 0.5158 0.5790 0.6814 0.7755 0.7494 0.7620 0.7931 0.8599 0.9221 0.8083 0.8618 1.0647 1.1343 1.0777 1.1709 1.2307 1.1983 1.1621 1.1080 1.0968 1.1099 1.2199 1.3067 1.2697 1.0930 0.8955 0.8251 1.0031 1.1866 1.3108 1.4004 1.5026 1.6179 1.6863 1.7755 1.8176 1.8400 1.8019 1.8366 1.9996 2.1355 2.1737 2.1408 2.0328 1.8044 1.5890 1.5120 1.4716 1.3845
1.2140 1.2790 1.2610 1.2750 1.4593 1.5864 1.3957 0.0830 0.3332 0.2876 0.2911 0.2619 0.2589 0.2048 0.2233 0.2623 0.1700 0.1836 0.3372 0.4060 0.3481 0.3475 0.3679 0.4213 0.4819 0.5369 0.5815 0.6015 0.6114 0.6164 0.6214 0.6662 0.7227 0.7657 0.7824 0.8431 0.9241 0.9459 0.8907 0.9467 1.0045 1.0261 1.0503 1.0569 1.0651 1.0717 1.0369 1.0128 0.9910 0.9500 1.0190 1.1041 1.1498 1.1725 1.1915 1.2065 1.2247 1.2361 1.2553 1.2790 1.3358 1.4217 1.4979 1.5520 1.5275 1.3445 1.1508 0.8910 0.6003 0.5435 0.5818 0.5872 0.5911 0.6180 0.6048 0.5601 0.6574 0.6833 0.5901 0.5265 0.5619 0.7172 0.7555 0.7374 0.7685 0.8117 0.8623 0.7562 0.7590 0.9766 1.0932 1.0884 1.1314 1.1720 1.2511 1.2713 1.2307 1.1670 1.1441 1.1521 1.2145 1.2882 1.2341 1.1390 1.0963 1.0855 1.0716 1.1916 1.3868 1.5420 1.6627 1.8190 1.8906 1.8776 1.8414 1.9045 2.0193 2.0338 2.1488 2.1339 2.0454 1.9838 1.8420 1.7642 1.5757 1.3689 1.2181 1.2062 1.2749
1.1602 1.2209 1.2041 1.2952 1.4712 1.5865 1.2520 0.2374 0.3999 0.3085 0.2627 0.1685 0.1577 0.1166 0.1529 0.2262 0.1774 0.1611 0.2926 0.3975 0.3634 0.3982 0.4685 0.5022 0.5556 0.5909 0.6060 0.6526 0.6660 0.6645 0.6841 0.7163 0.7593 0.7772 0.7634 0.8976 0.9818 0.9735 0.9622 1.0154 1.0281 1.0514 1.0610 1.0587 1.0609 1.0277 1.0017 0.9821 0.9560 0.9680 1.0738 1.1365 1.1845 1.1962 1.2175 1.2235 1.2371 1.2555 1.2838 1.2869 1.3552 1.4440 1.4852 1.4708 1.3315 1.0967 0.8604 0.6868 0.5469 0.5212 0.5951 0.6081 0.6082 0.6156 0.6163 0.5444 0.5639 0.6622 0.6608 0.6363 0.6745 0.6867 0.7357 0.8177 0.7624 0.7116 0.8519 0.9093 0.9702 1.0855 1.1227 1.1612 1.2098 1.2348 1.3020 1.3291 1.2740 1.1892 1.1626 1.1710 1.2320 1.2230 1.1482 1.1277 1.1755 1.2198 1.2377 1.3777 1.5487 1.7234 1.8533 1.9081 1.9680 2.0155 2.0591 2.1622 2.1261 1.9675 1.9867 1.8755 1.8859 1.8388 1.7395 1.3803 1.0290 0.9528 1.0332 1.0893 1.0607
1.1657 1.1649 1.1640 1.3178 1.4814 1.5395 1.1876 0.3046 0.5024 0.3724 0.2773 0.1094 0.0110 0.1161 0.2130 0.2005 0.1890 0.2277 0.3402 0.3970 0.4140 0.4761 0.5602 0.5890 0.6086 0.6303 0.6740 0.7223 0.7409 0.7376 0.7516 0.7894 0.8993 0.8262 0.8211 0.9149 1.0024 1.0355 1.0411 1.0377 1.0451 1.0528 1.0375 1.0303 1.0253 1.0048 1.0038 0.9836 0.9683 1.0118 1.0949 1.1568 1.1973 1.2227 1.2466 1.2489 1.2715 1.2926 1.3015 1.2714 1.3421 1.4424 1.4233 1.2463 1.0929 0.8753 0.6487 0.6067 0.5734 0.5407 0.5685 0.6195 0.6074 0.5770 0.5592 0.5573 0.6288 0.6365 0.6711 0.6702 0.7245 0.8374 0.7192 0.6992 0.8639 0.9120 0.9766 0.9940 1.1115 1.1294 1.1584 1.2559 1.3248 1.3381 1.3491 1.3293 1.2568 1.1920 1.1480 1.1304 1.1779 1.1859 1.1642 1.2273 1.3051 1.3187 1.3429 1.4574 1.6152 1.6743 1.9892 2.1212 2.1490 2.1163 2.0238 2.0115 1.8432 1.8627 1.8007 1.6526 1.4315 1.3046 1.1403 0.8968 0.7395 0.7511 0.7951 0.8270 0.8785
1.0896 1.1174 1.1805 1.3504 1.4306 1.4162 1.1813 0.2138 0.5767 0.4614 0.3487 0.1567 0.1537 0.1879 0.2525 0.2674 0.2721 0.3457 0.4125 0.4386 0.4892 0.5651 0.6397 0.6655 0.6873 0.7148 0.7629 0.8091 0.8349 0.8208 0.8659 0.9618 0.9228 0.7888 0.8466 0.9247 1.0284 1.0749 1.0627 1.0352 1.0370 1.0296 1.0205 1.0280 1.0344 1.0283 1.0005 0.9675 0.9486 1.0350 1.1439 1.2081 1.2363 1.2683 1.2729 1.2722 1.2793 1.2981 1.2463 1.2706 1.3130 1.3489 1.1854 1.0180 0.9094 0.6875 0.5359 0.5803 0.6026 0.5318 0.5428 0.5777 0.5629 0.6036 0.6236 0.5643 0.5955 0.5206 0.7207 0.9270 0.5763 0.6717 0.9693 0.9497 0.9685 1.0210 1.0455 1.0973 1.1947 1.2476 1.3359 1.4232 1.4278 1.3807 1.3106 1.2609 1.2261 1.1614 1.1566 1.1711 1.2307 1.2687 1.3298 1.3513 1.3599 1.3818 1.4200 1.4499 1.4021 2.0675 2.1665 2.1526 2.0349 1.9146 1.9149 1.8820 1.7165 1.3356 0.9751 0.8014 0.8029 0.8854 0.9096 0.8240 0.6902 0.6587 0.7277 0.6519 0.6225
1.0931 1.1138 1.1783 1.3001 1.3057 1.2853 1.2476 0.1444 0.6213 0.5523 0.4387 0.3043 0.2625 0.2675 0.3076 0.3201 0.3493 0.4019 0.4601 0.5366 0.5672 0.6480 0.7172 0.7477 0.7613 0.7994 0.8397 0.8735 0.8610 0.8622 0.9371 0.9385 0.8396 0.8496 0.8663 0.9353 1.0200 1.0712 1.0652 1.0550 1.0507 1.0433 1.0400 1.0567 1.0385 1.0166 0.9882 0.9632 1.0215 1.1668 1.2457 1.2682 1.2819 1.2734 1.2628 1.2491 1.2246 1.2060 1.2691 1.2530 1.1586 1.1342 1.0207 0.8059 0.6951 0.6386 0.5538 0.5931 0.5883 0.5129 0.5219 0.5788 0.6167 0.5710 0.5747 0.5302 0.6519 0.8578 0.5685 0.6112 0.9221 1.0245 1.0056 1.0986 1.1482 1.1656 1.1517 1.2600 1.3505 1.4500 1.5252 1.4990 1.4626 1.3764 1.2691 1.3376 1.3407 1.3157 1.3694 1.3684 1.3803 1.4175 1.4465 1.3838 1.3761 1.3810 1.3136 1.1431 2.1550 2.2171 2.1417 2.0417 1.9626 1.8468 1.6662 1.2099 0.7369 0.7102 0.6896 0.7123 0.7579 0.7229 0.7638 0.7331 0.6812 0.6499 0.6808 0.6728 0.5443
1.0740 1.0948 1.1527 1.2194 1.1927 1.1876 1.2360 0.5415 0.5956 0.6178 0.5102 0.3734 0.3337 0.3249 0.3579 0.3724 0.3998 0.4733 0.5423 0.5665 0.6355 0.7006 0.7531 0.7838 0.8001 0.8388 0.8509 0.8731 0.8474 0.8955 0.9354 0.9216 0.8937 0.8736 0.8836 0.9358 1.0334 1.0938 1.0923 1.0953 1.0861 1.0770 1.0783 1.0545 1.0333 1.0414 1.0094 1.0648 1.1762 1.2582 1.2795 1.2815 1.2127 1.1856 1.1964 1.1032 1.0714 1.1957 1.2462 1.0168 0.8123 0.8121 0.7998 0.7130 0.6926 0.6121 0.5339 0.5539 0.5825 0.5918 0.6030 0.5551 0.4584 0.4506 0.6780 0.8158 0.6427 0.6524 0.8176 1.0245 1.1033 1.1537 1.1270 1.1935 1.2327 1.2567 1.3499 1.4666 1.5447 1.6190 1.6254 1.5522 1.5775 1.5174 1.5705 1.6254 1.5945 1.6001 1.5896 1.5447 1.5299 1.5514 1.4410 1.3144 1.2683 1.1342 1.8271 2.2080 2.2582 2.1488 2.1255 1.9732 1.6528 1.1462 0.7112 0.6281 0.6818 0.7086 0.7254 0.7052 0.7150 0.6715 0.6741 0.6717 0.6176 0.6477 0.6245 0.6615 0.7040
1.0440 1.0671 1.1037 1.1377 1.1209 1.1450 1.1995 0.8398 0.4552 0.6346 0.5578 0.3972 0.3539 0.3737 0.3895 0.4308 0.4954 0.5278 0.5679 0.6232 0.6922 0.7239 0.7648 0.7942 0.8286 0.8340 0.8908 0.9109 0.8762 0.9121 0.9499 0.9545 0.9204 0.8933 0.8968 0.9645 1.0795 1.1204 1.1256 1.1302 1.1093 1.1032 1.0843 1.0578 1.0900 1.0840 1.1095 1.1846 1.2294 1.2492 1.2124 1.1166 1.0582 1.0786 1.0073 1.0032 1.0600 1.1150 0.9533 0.7292 0.6831 0.7296 0.7771 0.6948 0.6099 0.5915 0.5571 0.6103 0.5983 0.5726 0.3948 0.6028 0.8410 0.6965 0.6691 0.7488 0.8384 0.9642 1.0822 1.1401 1.1426 1.1741 1.2230 1.2541 1.3225 1.4680 1.5673 1.6055 1.6739 1.7249 1.6927 1.7028 1.7451 1.7622 1.7801 1.7706 1.7751 1.7511 1.7151 1.7200 1.7480 1.6898 1.3036 1.6707 1.9308 2.1989 2.2553 2.2166 2.1404 2.1373 1.9466 1.2343 0.5399 0.5444 0.6159 0.6075 0.6732 0.7266 0.7613 0.7672 0.7671 0.7181 0.6371 0.6611 0.6085 0.6349 0.6877 0.6655 0.6722
1.0215 1.0387 1.0533 1.0886 1.0894 1.0860 1.1319 1.0521 0.1287 0.5843 0.5401 0.4063 0.3765 0.4051 0.4509 0.4991 0.5410 0.5692 0.6267 0.6765 0.7296 0.7350 0.7710 0.8163 0.8093 0.8773 0.9482 0.9110 0.8828 0.9130 0.9615 0.9774 0.9432 0.9116 0.8985 1.0208 1.0853 1.1184 1.1310 1.1362 1.1246 1.1260 1.1146 1.1224 1.1439 1.1473 1.1778 1.1629 1.1592 1.0936 1.0271 1.0008 1.0190 0.9563 1.0469 1.0214 0.9038 0.8308 0.7655 0.7779 0.6921 0.6154 0.6342 0.6036 0.6186 0.6399 0.5892 0.5647 0.4172 0.6268 0.8626 0.8192 0.7702 0.7775 0.8263 0.9140 0.9226 1.0108 1.0632 1.0739 1.1601 1.2592 1.2900 1.3370 1.4953 1.5970 1.6740 1.7193 1.7837 1.8005 1.7983 1.8412 1.8562 1.8651 1.8450 1.8381 1.8135 1.7994 1.8347 1.8948 1.9018 1.7468 2.0040 2.2360 2.2190 2.1080 2.1335 2.1287 2.0774 1.7279 0.6770 0.5204 0.5421 0.5346 0.5749 0.6034 0.6863 0.7437 0.7705 0.7840 0.8026 0.7763 0.6756 0.6902 0.6753 0.6566 0.7061 0.7030 0.6779
1.0218 1.0207 1.0175 1.0584 1.0503 1.0516 1.1067 1.1132 0.3309 0.5586 0.5268 0.4478 0.4042 0.4404 0.4974 0.5378 0.5626 0.6120 0.6628 0.7223 0.7337 0.7406 0.7828 0.7948 0.8389 0.9336 0.9511 0.9288 0.8926 0.9102 0.9610 0.9965 0.9792 0.8982 0.9419 1.0372 1.0908 1.1427 1.1440 1.1457 1.1652 1.1774 1.1704 1.1641 1.1534 1.1361 1.0929 1.0241 1.0651 1.0177 1.0003 1.0183 0.9571 0.8976 0.8791 0.7824 0.7793 0.7824 0.7397 0.6569 0.5766 0.5466 0.6021 0.6288 0.5879 0.5931 0.4827 0.6097 0.8306 0.8397 0.7961 0.8084 0.8082 0.8149 0.8254 0.8645 0.9574 0.9871 1.0595 1.1426 1.2739 1.2978 1.3882 1.4927 1.6138 1.7094 1.7912 1.8464 1.8629 1.8655 1.8852 1.8877 1.8757 1.8776 1.8407 1.7991 1.8043 1.8692 1.9225 1.9757 1.9915 2.0755 2.1377 2.1119 2.0231 2.0571 2.0198 1.7843 0.9968 0.5993 0.6028 0.5733 0.5525 0.5411 0.5725 0.5845 0.6252 0.6942 0.7558 0.7765 0.8058 0.8408 0.7352 0.6954 0.6922 0.6829 0.7754 0.7592 0.7300
1.0244 1.0014 0.9949 1.0369 1.0168 1.0107 1.0710 1.0908 0.6593 0.4810 0.5794 0.5146 0.4608 0.4796 0.5015 0.5484 0.5884 0.6467 0.6784 0.7223 0.7304 0.7447 0.7804 0.8300 0.9005 0.9494 0.9835 0.9415 0.9236 0.9108 0.9701 1.0265 0.9851 0.9355 1.0229 1.0699 1.1353 1.1481 1.1487 1.1848 1.2371 1.2049 1.1660 1.1272 1.0652 1.0743 0.9602 1.0293 1.0344 0.9271 0.9033 0.8678 0.7875 0.7912 0.7711 0.7485 0.7551 0.7122 0.6154 0.5997 0.5861 0.5600 0.5446 0.5462 0.5595 0.5927 0.6374 0.8597 0.9122 0.8285 0.7982 0.8057 0.8309 0.8509 0.8290 0.9600 1.0300 1.0673 1.1116 1.2294 1.3033 1.3848 1.5022 1.6232 1.7285 1.8081 1.8903 1.9124 1.8815 1.8856 1.8699 1.8484 1.8625 1.8566 1.8167 1.7738 1.8213 1.8744 1.9282 1.9721 1.9477 1.9748 1.9674 1.9576 1.8495 1.5898 0.9597 0.6420 0.6261 0.6295 0.6237 0.6112 0.5918 0.5372 0.5682 0.5923 0.5874 0.6547 0.7115 0.7502 0.8193 0.8713 0.8079 0.7306 0.7430 0.7438 0.7946 0.8411 0.8435
1.0192 0.9892 0.9793 1.0202 0.9844 0.9802 1.0458 1.0597 0.8762 0.1929 0.6225 0.5797 0.5398 0.5184 0.5194 0.5830 0.6175 0.6555 0.6772 0.7231 0.7329 0.7645 0.8396 0.8838 0.9214 0.9740 0.9896 0.9791 0.9463 0.9073 0.9803 1.0408 0.9959 1.0181 1.0622 1.0998 1.1303 1.1338 1.1500 1.2108 1.1789 1.1052 1.0738 1.0227 1.0167 0.9375 0.8563 0.9289 0.8251 0.8048 0.7978 0.7731 0.7758 0.7561 0.6957 0.6778 0.6550 0.6131 0.5891 0.5747 0.5496 0.5225 0.5349 0.6087 0.6270 0.7038 0.7840 0.8836 0.9325 0.7951 0.7509 0.7806 0.8796 0.9047 0.9274 0.9939 1.0395 1.0643 1.1547 1.2941 1.3527 1.4892 1.5943 1.7387 1.7861 1.8692 1.9198 1.8964 1.8410 1.8010 1.7478 1.7822 1.7701 1.7014 1.6337 1.6816 1.7848 1.8122 1.8791 1.8376 1.7577 1.7246 1.5783 1.2969 0.9650 0.7688 0.6613 0.6374 0.6233 0.6103 0.6188 0.6060 0.6160 0.5906 0.5838 0.5975 0.5854 0.6526 0.7054 0.7899 0.8507 0.8783 0.8716 0.7934 0.8151 0.7871 0.7871 0.9257 0.9900
0.9840 0.9610 0.9763 1.0018 0.9454 0.9608 1.0168 1.0149 0.9568 0.3804 0.5928 0.6539 0.6138 0.5473 0.5750 0.6041 0.6308 0.6574 0.6769 0.6902 0.7267 0.8007 0.8508 0.8849 0.9387 0.9843 0.9948 0.9890 0.9377 0.9024 0.9599 1.0061 1.0410 1.0642 1.0562 1.0778 1.1057 1.0985 1.0944 1.0978 1.0482 1.0502 0.9994 0.9462 0.8926 0.8011 0.8324 0.8158 0.7545 0.7572 0.7539 0.7352 0.7139 0.6517 0.6165 0.6090 0.6001 0.5737 0.5467 0.5258 0.5192 0.5856 0.5638 0.5377 0.6485 0.6841 0.8562 1.0507 0.9686 0.7215 0.7130 0.9154 1.0072 0.9513 0.9610 0.9852 1.0062 1.1464 1.3305 1.3457 1.4782 1.6069 1.7029 1.7929 1.8328 1.9050 1.8910 1.8142 1.6991 1.6107 1.5767 1.4668 1.2549 1.2060 1.3473 1.4439 1.4465 1.5805 1.6402 1.4896 1.3567 1.0258 0.8625 0.8838 0.8685 0.7956 0.6646 0.6110 0.6070 0.5837 0.6227 0.6184 0.6183 0.6386 0.6108 0.6454 0.6598 0.6691 0.7512 0.8663 0.8730 0.9104 0.9163 0.8355 0.8384 0.8239 0.8873 0.9793 1.0147
0.9272 0.9367 0.9666 0.9871 0.9568 0.9567 0.9801 0.9820 0.9479 0.7243 0.4351 0.7182 0.6537 0.5760 0.5978 0.6083 0.6359 0.6474 0.6472 0.6727 0.7413 0.8122 0.8682 0.9084 0.9497 0.9827 0.9842 0.9895 0.9218 0.8748 0.9677 1.0389 1.0605 1.0413 1.0365 1.0385 1.0440 1.0121 0.9948 0.9693 1.0401 1.0120 0.8894 0.8777 0.8263 0.7578 0.7562 0.7028 0.6873 0.7320 0.7128 0.6765 0.6519 0.6233 0.5930 0.5674 0.5171 0.4724 0.4809 0.5914 0.5874 0.5726 0.6306 0.6480 0.6820 0.6698 0.7461 1.0977 1.0733 0.9076 0.9222 0.9394 0.9293 1.0255 0.9482 0.9699 1.1024 1.3287 1.3705 1.4486 1.6116 1.6802 1.7854 1.8266 1.8783 1.8791 1.7970 1.6568 1.5152 1.3370 1.0629 0.9185 0.9468 1.0473 1.1511 1.2097 1.3096 1.3694 1.2828 1.2017 0.9782 0.6355 0.6238 0.7567 0.7927 0.7378 0.6684 0.6122 0.6185 0.5851 0.5994 0.6589 0.6589 0.6528 0.6567 0.7338 0.7685 0.7553 0.8386 0.8825 0.8895 0.9268 0.9107 0.9102 0.8982 0.9197 0.9361 0.9388 0.9967
0.9228 0.9446 0.9686 0.9825 0.9704 0.9530 0.9396 0.9401 0.9216 0.8916 0.6102 0.6042 0.6663 0.6258 0.5984 0.6144 0.6397 0.6432 0.6508 0.6924 0.7649 0.8553 0.8798 0.8960 0.9373 0.9646 0.9674 0.9594 0.8884 0.9048 1.0144 0.9610 0.9931 1.0141 0.9861 0.9693 0.9938 0.9583 0.9356 0.9972 1.0317 0.8699 0.8372 0.8127 0.7101 0.6657 0.6596 0.6614 0.6634 0.6364 0.6140 0.6674 0.6791 0.5654 0.4939 0.3866 0.4195 0.6400 0.5659 0.5567 0.6657 0.6622 0.6677 0.6664 0.6810 0.7267 0.6526 0.7849 1.2113 1.3981 0.9713 0.9017 0.9521 0.9029 0.8545 0.9519 1.2415 1.3936 1.4501 1.6218 1.7187 1.7901 1.8530 1.8578 1.8722 1.7873 1.6582 1.4691 1.1769 0.8281 0.6558 0.7245 0.8656 0.9851 1.0942 1.2122 1.2940 1.3157 1.2725 1.1765 0.8439 0.5433 0.5210 0.5981 0.6456 0.6330 0.6319 0.6155 0.6282 0.6102 0.5777 0.6703 0.7301 0.6855 0.7026 0.8783 0.9197 0.8322 0.8658 0.9055 0.9197 0.9288 0.9585 0.9555 0.9174 0.9684 0.9376 0.9753 1.0307
0.9579 0.9750 0.9843 0.9903 0.9656 0.9227 0.8925 0.9218 0.9626 0.9137 0.7910 0.4931 0.7586 0.6618 0.5949 0.6228 0.6356 0.6458 0.6619 0.7058 0.7866 0.8475 0.8644 0.8877 0.9202 0.9317 0.9288 0.9194 0.9123 0.9368 0.9014 0.7966 0.9355 0.9621 0.9451 0.9731 0.9511 0.8936 0.9029 0.8941 0.8317 0.7977 0.7799 0.7034 0.6520 0.6023 0.5936 0.6046 0.5632 0.5651 0.6807 0.6293 0.5151 0.3638 0.4123 0.6415 0.5481 0.5467 0.6651 0.6614 0.6789 0.6846 0.6838 0.6977 0.6877 0.7157 0.6791 0.8288 1.3917 1.5324 0.9124 0.8847 0.8905 0.7433 0.7488 0.9388 1.4455 1.4422 1.6370 1.7590 1.8059 1.8547 1.8711 1.8625 1.8106 1.6289 1.3553 0.9831 0.6822 0.5838 0.5876 0.6731 0.8131 0.9154 1.0747 1.2724 1.3910 1.4515 1.3986 1.1903 0.7234 0.5042 0.3815 0.3971 0.4872 0.5461 0.6049 0.6039 0.5976 0.6214 0.5997 0.6606 0.7742 0.8223 0.8375 0.9064 0.9402 0.9320 0.9037 0.9146 0.9420 0.9314 0.9628 0.9725 0.9814 1.0064 0.9662 0.9824 0.9523
1.0093 0.9993 0.9783 0.9925 0.9538 0.9570 0.9417 0.9468 0.9445 0.8908 0.9165 0.7904 0.5742 0.7063 0.5960 0.6112 0.6275 0.6565 0.6841 0.7271 0.7952 0.8926 0.8767 0.8901 0.9214 0.9064 0.9110 0.9336 0.8971 0.8240 0.5589 0.6357 0.8309 0.9256 0.9308 0.8794 0.8046 0.8074 0.7945 0.8097 0.7681 0.6916 0.6629 0.6476 0.6017 0.5588 0.5700 0.5393 0.4695 0.5201 0.5236 0.4028 0.5330 0.6148 0.5489 0.6221 0.6314 0.6397 0.6526 0.6557 0.6772 0.7008 0.7152 0.7142 0.7056 0.7610 0.7125 0.6982 1.4437 1.3850 0.9149 0.9231 0.8727 0.8739 0.6866 0.8533 1.9141 1.5976 1.7952 1.8148 1.8379 1.8672 1.8489 1.7265 1.4653 1.0582 0.7541 0.7364 0.6334 0.5126 0.5286 0.6291 0.8060 0.9425 1.1807 1.4294 1.5625 1.5804 1.4729 1.1294 0.6167 0.4437 0.3014 0.2763 0.3835 0.4596 0.5565 0.6278 0.6394 0.6624 0.6497 0.6828 0.8096 0.9124 0.9158 0.9017 1.0160 1.0235 0.9103 0.9095 0.9202 0.9276 0.9857 1.0244 1.0407 0.9992 1.0381 0.9973 0.8873
1.0085 1.0071 1.0662 1.0931 1.0368 0.9769 0.9381 0.9391 0.8517 0.8425 0.8675 0.8081 0.5196 0.6714 0.6469 0.6020 0.6308 0.6709 0.6997 0.7302 0.8592 0.9059 0.8447 0.8721 0.8681 0.8675 0.8590 0.8575 0.8558 0.5546 0.1950 0.7277 1.2225 1.0558 0.8681 0.8349 0.8208 0.7785 0.7181 0.6784 0.6501 0.6381 0.6031 0.5815 0.5507 0.5239 0.5320 0.5080 0.4207 0.3736 0.5601 0.5449 0.5337 0.6805 0.6634 0.6375 0.6408 0.6300 0.6258 0.6567 0.7029 0.7243 0.7474 0.7569 0.7407 0.7832 0.7467 0.6714 1.2484 1.3704 1.4688 0.9132 0.8677 0.8571 0.6512 1.9289 1.8106 1.5977 1.8642 1.8252 1.8141 1.8182 1.5212 1.0199 0.8264 0.7835 0.6719 0.6447 0.6498 0.5497 0.5346 0.6142 0.8310 1.1037 1.4210 1.6189 1.7037 1.6640 1.4886 0.9517 0.5114 0.3660 0.2919 0.2643 0.3195 0.4043 0.5388 0.6705 0.7203 0.7069 0.7132 0.7649 0.8559 0.9695 0.9893 0.9407 1.0339 1.0428 0.9395 0.9014 0.9091 0.9428 0.9961 1.0212 1.0223 1.0701 1.1381 1.0552 1.0827
1.1097 1.1083 1.1741 1.1372 1.0662 1.0216 1.0157 0.8095 0.6156 0.7703 0.8731 0.9743 0.9128 0.5859 0.5819 0.5879 0.6384 0.6757 0.6939 0.7420 0.8564 0.8405 0.7943 0.7965 0.8373 0.8283 0.7688 0.8571 0.8839 0.5123 0.2402 0.7289 1.2733 1.2368 0.9699 0.8404 0.7400 0.6935 0.6169 0.5924 0.5982 0.5895 0.5709 0.5200 0.4885 0.5420 0.4869 0.3875 0.5510 0.5120 0.5044 0.6869 0.6834 0.6612 0.6540 0.6305 0.6133 0.6055 0.6316 0.6919 0.7446 0.7590 0.7756 0.7892 0.8007 0.8432 0.8623 0.8369 1.0397 1.5232 1.6492 0.8725 0.8414 0.9035 0.9151 1.7620 1.2758 1.6888 1.7770 1.7694 1.7362 1.3191 0.7534 0.6536 0.6953 0.7375 0.6803 0.6286 0.6693 0.6249 0.5735 0.7340 1.0406 1.4239 1.6521 1.7491 1.7448 1.6518 1.3752 0.7147 0.3901 0.3258 0.3043 0.2926 0.3018 0.3526 0.5419 0.7459 0.7954 0.8060 0.8140 0.8279 0.8925 0.9680 1.0206 1.0076 1.0368 1.0428 0.9454 0.8778 0.9114 0.9479 1.0230 1.0693 1.1266 1.2227 1.2399 1.2734 1.3932
1.1274 1.1764 1.2386 1.1657 1.0828 1.0198 0.9650 0.5660 0.5491 0.5716 0.6240 1.3955 1.8914 0.6512 0.3942 0.5631 0.6233 0.6652 0.6932 0.7510 0.8389 0.8020 0.7279 0.7606 0.7352 0.7457 0.7347 0.7830 0.8356 0.3423 1.0336 1.0552 1.2263 1.4751 1.4856 0.7200 0.5668 0.5635 0.5565 0.5244 0.5000 0.5133 0.5455 0.5818 0.4563 0.3855 0.5980 0.5654 0.5527 0.6576 0.6443 0.6442 0.6466 0.6320 0.6091 0.6018 0.6213 0.6416 0.6765 0.7590 0.7721 0.7691 0.8457 0.8766 0.8915 0.8910 0.9251 0.8693 0.9602 1.6198 1.6742 0.8706 0.8488 0.9113 0.9148 0.9398 1.1801 1.6934 1.6635 1.7699 1.1459 0.5584 0.6172 0.6978 0.6892 0.7087 0.6923 0.6651 0.7109 0.7473 0.7611 0.9635 1.3858 1.6594 1.7638 1.7963 1.7251 1.6212 1.1584 0.4641 0.3291 0.3245 0.3179 0.2894 0.2975 0.3907 0.5358 0.7640 0.8939 0.9116 0.8780 0.8869 0.9268 0.9939 1.0473 1.0459 0.9709 0.9837 0.9839 0.9470 0.9910 1.0857 1.1799 1.2513 1.2996 1.3550 1.3744 1.4649 1.5170
1.1048 1.1819 1.2292 1.1754 1.0428 1.0655 0.9281 0.4108 0.3605 0.9761 0.9432 2.1377 1.9643 0.7661 0.5369 0.5154 0.5621 0.6243 0.6903 0.7444 0.7629 0.6849 0.6507 0.6482 0.6453 0.6739 0.6754 0.7113 0.7825 0.6572 1.0191 1.2276 1.5447 1.5970 0.9274 0.5700 0.5311 0.4998 0.4744 0.4632 0.4683 0.5351 0.3908 0.4102 0.6684 0.6097 0.5991 0.6745 0.6536 0.6307 0.6270 0.6112 0.5850 0.5883 0.6167 0.6463 0.6688 0.7022 0.7735 0.7980 0.7792 0.8504 0.9024 0.9430 0.9663 0.9265 0.9106 0.8658 0.9005 1.6706 1.4146 1.1336 0.8826 0.9712 0.9615 0.8305 1.4251 1.6876 1.5856 1.6782 0.4675 0.4475 0.5581 0.6755 0.6587 0.7004 0.7598 0.7028 0.7751 0.9129 0.9735 1.2545 1.5577 1.6906 1.7649 1.7535 1.6486 1.5013 0.8395 0.3702 0.3321 0.2900 0.3327 0.3094 0.2958 0.4454 0.6102 0.7878 0.9368 0.9886 0.9750 0.9352 0.9946 1.0552 1.0322 1.0169 0.9395 0.9982 1.0830 1.0860 1.1699 1.3305 1.3909 1.4304 1.4374 1.4514 1.5017 1.6043 1.6067
1.1388 1.1808 1.2236 1.1250 1.0102 0.9404 0.8576 0.4035 0.6985 0.9787 1.7282 2.2642 1.9717 0.9672 0.6174 0.5447 0.6740 0.6646 0.6594 0.6448 0.6191 0.5708 0.5555 0.5409 0.5662 0.6067 0.6331 0.6256 0.6423 0.6855 0.6722 0.8918 0.8610 0.6262 0.6060 0.6256 0.5682 0.4832 0.4562 0.4391 0.3013 0.4454 0.6628 0.6469 0.6663 0.6702 0.6695 0.6626 0.6366 0.6116 0.5927 0.5819 0.6000 0.6237 0.6412 0.6825 0.7572 0.7923 0.7902 0.8002 0.8521 0.9221 0.9600 0.9474 0.9347 0.9555 0.9527 0.9408 0.9546 1.2714 1.4653 1.2277 0.4133 0.7410 0.9336 1.0143 1.5125 1.3158 1.6341 1.3646 0.2903 0.4052 0.4878 0.6284 0.6665 0.7056 0.8302 0.7951 0.8558 1.0520 1.1858 1.3531 1.5386 1.6321 1.6913 1.6303 1.5231 1.1741 0.5989 0.3842 0.4048 0.3188 0.3235 0.3338 0.3576 0.4909 0.7081 0.8493 0.9644 1.0639 1.0685 1.0273 1.0149 0.9952 1.0173 1.0626 1.0043 1.0313 1.1637 1.3338 1.4503 1.4813 1.5055 1.4925 1.4981 1.5214 1.6278 1.6580 1.6418
1.0627 1.1273 1.1381 1.0805 0.9608 0.8632 0.8780 0.7373 0.8024 1.4312 1.9608 2.0828 1.4446 0.5765 0.4240 0.4805 0.4870 0.4445 0.4767 0.5014 0.5007 0.4949 0.4833 0.4754 0.4867 0.5401 0.5786 0.6224 0.6429 0.6381 0.6057 0.5463 0.5075 0.5401 0.6075 0.6002 0.5410 0.4510 0.3220 0.4791 0.6419 0.6834 0.6935 0.6776 0.6970 0.6809 0.6486 0.6282 0.6091 0.5941 0.5924 0.6007 0.6191 0.6478 0.7240 0.7714 0.7852 0.8137 0.8337 0.9001 0.9286 0.9455 0.9433 0.9525 0.9918 0.9943 0.9889 1.0135 1.0316 1.1172 0.9114 1.1322 1.4014 1.0032 1.0862 1.0877 1.3685 1.1911 1.5758 1.0633 0.3576 0.3604 0.4622 0.6179 0.7181 0.7830 0.8990 0.8995 0.9591 1.1287 1.2438 1.3731 1.5268 1.6390 1.6635 1.5576 1.3739 0.8060 0.4590 0.3447 0.3784 0.3785 0.3571 0.3628 0.4146 0.5542 0.8100 0.9384 0.9768 1.0749 1.1150 1.0838 1.0341 1.0000 1.0465 1.1137 1.1034 1.1417 1.3776 1.5507 1.5640 1.5437 1.5562 1.5162 1.5386 1.5993 1.6954 1.6533 1.6611
1.0679 1.1130 1.0817 1.0043 0.8996 0.9226 0.8311 0.7701 0.8222 1.0127 1.2306 0.9831 0.5816 0.4784 0.3139 0.2192 0.2990 0.3855 0.4793 0.5299 0.5341 0.4984 0.4899 0.4208 0.4102 0.4868 0.5734 0.6298 0.6216 0.6097 0.6000 0.5267 0.4468 0.4698 0.5709 0.5254 0.4678 0.6091 0.6098 0.6865 0.7433 0.7003 0.7017 0.7051 0.6784 0.6382 0.6090 0.6024 0.6037 0.6045 0.6128 0.6367 0.6901 0.7630 0.8044 0.7952 0.8654 0.9110 0.9469 0.9640 0.8992 0.9169 0.9710 1.0000 1.0168 1.0423 1.0805 1.1102 1.0794 1.0507 1.1002 1.5313 1.4064 1.2474 1.3385 1.3731 1.5476 1.1605 0.8024 0.7111 0.5047 0.3457 0.4772 0.6668 0.8286 0.9153 0.9134 0.9931 1.0038 1.1141 1.2668 1.4558 1.5908 1.6787 1.6263 1.5460 1.2008 0.5057 0.3397 0.3225 0.3211 0.3729 0.3909 0.4806 0.5291 0.6392 0.7932 0.9669 1.0912 1.0969 1.0958 1.1045 1.0919 1.0568 1.0986 1.1464 1.2010 1.3331 1.5656 1.6367 1.6098 1.5841 1.5796 1.5448 1.6379 1.7196 1.7688 1.7420 1.7629
1.1181 1.1236 1.0614 0.9446 0.8789 0.8985 0.7115 0.6797 0.6829 0.6662 0.6583 0.7593 0.6848 0.5374 0.5337 0.4656 0.4672 0.5239 0.5770 0.5882 0.5635 0.5505 0.5349 0.3568 0.4262 0.4907 0.5532 0.5471 0.5412 0.5355 0.5484 0.5198 0.5044 0.5605 0.6049 0.5897 0.6279 0.6985 0.6957 0.7708 0.7208 0.7204 0.7022 0.6730 0.6410 0.6116 0.5985 0.5961 0.6034 0.6248 0.6563 0.7273 0.8083 0.8127 0.7933 0.8430 0.9555 0.9647 0.9337 0.8902 0.9024 0.9387 0.9997 1.0177 1.0563 1.1099 1.1794 1.1738 1.1315 1.0815 1.0049 1.4857 1.6945 1.6161 1.3752 1.5976 1.5140 0.5200 0.3353 0.4137 0.4808 0.4391 0.5579 0.7001 0.9018 0.9544 0.9569 0.9825 0.9767 1.1220 1.3333 1.5473 1.6208 1.6742 1.6061 1.5188 0.9610 0.3196 0.2660 0.3175 0.3006 0.3879 0.4559 0.5844 0.6460 0.7287 0.8409 0.9946 1.1161 1.1207 1.1179 1.1326 1.1523 1.0947 1.1229 1.1493 1.2859 1.5036 1.6756 1.6511 1.6139 1.6139 1.5977 1.6106 1.7346 1.7823 1.8364 1.8150 1.8040
