NCOLS 129
NROWS 89
XLLCORNER 4477375.0000000000
YLLCORNER 5725725.0000000000
CELLSIZE 10.000000
NODATA_VALUE -99999.0000
1.8903 2.6377 3.7654 3.3885 3.1162 5.4486 6.8895 13.3251 6.2572 3.5256 3.1425 2.2791 1.6891 1.3839 1.1471 1.2001 0.8980 1.0393 1.1291 1.1750 1.4009 1.4739 1.2809 1.0500 0.9944 0.8835 1.0425 1.1095 1.1815 1.2713 1.3293 1.2833 1.2017 1.1669 1.1059 1.1113 1.0286 0.9982 1.1640 1.4271 1.3877 1.2430 1.1306 1.2197 1.2961 1.2690 1.3105 1.2347 1.0768 0.9431 0.7578 0.7668 0.8797 0.9364 0.9863 1.0459 1.1125 1.0483 1.0061 0.9835 1.0252 1.1814 1.2242 1.2462 1.3725 1.4612 1.4352 1.3668 1.2797 1.2569 1.1969 1.1533 1.1421 1.1139 1.0688 0.9132 0.8154 0.8842 0.9325 0.9921 1.0005 1.0206 1.1112 1.2368 0.9304 0.7959 0.5690 0.5432 0.5703 0.7038 0.6206 0.5825 0.4650 0.4966 0.5306 0.6306 0.6202 0.5362 0.5129 0.4294 0.3233 0.2398 0.2340 0.2273 0.1696 0.4001 0.3595 0.4191 0.6046 0.5571 0.7303 0.9008 0.4983 0.4868 0.3790 0.1966 0.3029 0.8398 1.0607 1.5822 1.2455 1.0282 1.0479 1.3944 0.9130 1.6676 1.8631 1.4663 2.2084
2.0631 2.5776 3.0121 3.1916 3.4295 4.1809 5.5203 4.9248 2.7134 2.3588 2.1721 1.6029 1.4346 1.3111 1.2451 1.1937 1.0308 1.0254 1.0180 0.9560 1.0370 1.0832 0.9272 0.7179 0.6720 0.6423 0.6938 0.8843 0.9500 1.0894 1.2166 1.1956 1.0618 0.9882 1.0002 0.8938 0.8689 0.8090 0.8660 1.1963 1.1793 1.0994 1.0167 0.9791 0.9787 1.0092 1.1518 1.0276 0.8949 0.8098 0.7372 0.6844 0.7045 0.7503 0.7593 0.7558 0.8011 0.8548 0.8477 0.9055 0.8353 0.8168 0.8519 0.8562 0.9303 0.9721 0.9581 0.9388 0.9963 1.1461 1.3103 1.3925 1.3245 1.1695 0.9591 0.9397 0.9123 0.8962 0.9153 0.8466 0.7829 0.7064 0.6474 0.6900 0.7810 0.6417 0.6757 0.6857 0.9753 1.0410 0.8722 0.8396 0.8328 0.8160 0.7607 0.7380 0.6586 0.5756 0.4749 0.3525 0.2799 0.2223 0.2918 0.1600 0.3138 0.1689 0.1567 0.1657 0.2612 0.2739 0.2178 0.2286 0.2691 0.2953 0.3427 0.2836 0.2780 0.5461 0.8470 1.0105 0.9716 0.8531 0.7976 0.8307 0.5796 0.9583 1.3363 1.4499 1.5228
2.0582 2.6245 3.0329 3.3161 3.5594 4.1736 4.0596 2.2865 2.3870 2.2507 1.9824 1.5478 1.5211 1.4220 1.3826 1.3054 1.1599 1.0054 1.0120 0.8649 0.8373 0.8390 0.7530 0.6206 0.6058 0.6470 0.5957 0.6466 0.7374 0.7719 0.8401 0.8881 0.8744 0.8379 0.8444 0.8336 0.8847 0.9148 0.9134 0.9833 0.9379 0.8380 0.7955 0.7278 0.6292 0.6154 0.8150 1.0164 0.9543 0.8551 0.6949 0.6236 0.6558 0.6942 0.6815 0.6589 0.6280 0.6626 0.6124 0.6302 0.7620 0.6623 0.5942 0.5930 0.6396 0.6796 0.6994 0.7171 0.7806 0.8024 0.8763 1.0321 1.1373 1.0753 0.8271 0.6627 0.6425 0.5888 0.5607 0.5775 0.5675 0.5173 0.4731 0.5369 0.5831 0.6053 0.6399 0.8586 1.1051 1.1961 1.3917 1.4299 1.4184 1.1796 1.0013 0.8488 0.6576 0.4579 0.3030 0.2180 0.2318 0.4875 0.4182 0.2853 0.1773 0.1764 0.1531 0.1253 0.1386 0.1631 0.1651 0.2209 0.2386 0.3254 0.4167 0.4629 0.4845 0.5029 0.6180 0.5380 0.5855 0.4945 0.4197 0.3754 0.2546 0.2892 0.4283 0.8723 0.7521
4.3129 4.6925 4.4857 4.2980 4.0376 3.8312 3.1720 2.5689 2.2193 2.0904 2.0960 1.8175 1.6756 1.5585 1.3745 1.4196 1.2041 1.1135 1.1167 0.9956 0.8397 0.7344 0.6099 0.5820 0.6466 0.7203 0.7313 0.7550 0.8815 0.9149 0.8811 0.8998 0.8323 0.7197 0.7006 0.6081 0.5677 0.6205 0.7420 0.8923 0.9101 0.7348 0.6917 0.6613 0.6223 0.5881 0.6526 0.7933 0.8497 0.8929 0.8249 0.7302 0.6572 0.6562 0.7147 0.7005 0.6629 0.6416 0.6431 0.5942 0.6171 0.6043 0.5664 0.5540 0.5597 0.6096 0.6633 0.6871 0.7274 0.7981 0.8430 0.8943 0.9711 0.8638 0.6676 0.5687 0.4834 0.4318 0.4178 0.5262 0.5525 0.4760 0.4341 0.4848 0.6032 0.6628 0.7716 0.9795 1.3554 1.6328 1.8844 1.8984 1.7895 1.4959 1.0332 0.7186 0.4891 0.3203 0.1706 0.1740 0.7132 0.3326 0.3498 0.2939 0.2580 0.2563 0.2342 0.2132 0.2207 0.2066 0.3099 0.4051 0.4747 0.7057 0.7708 0.7825 0.6816 0.5195 0.3774 0.2803 0.2936 0.2347 0.2133 0.2184 0.2163 0.2135 0.1586 0.2973 0.3189
5.0132 4.6007 3.8320 4.5397 3.9892 3.5007 2.9053 2.2772 2.0164 1.8127 1.4901 1.2269 1.1246 1.0597 0.8803 0.7670 0.7969 0.6533 0.5830 0.7949 0.7958 0.6981 0.5369 0.4551 0.5441 0.6405 0.6705 0.6856 0.7168 0.8097 0.7982 0.8290 0.8740 0.7806 0.7286 0.6430 0.5541 0.6743 0.9102 0.9599 0.9905 0.9271 0.7341 0.6535 0.6312 0.6300 0.6576 0.7775 0.8122 0.8537 0.8582 0.7817 0.6849 0.6862 0.6837 0.6631 0.5947 0.6014 0.5957 0.6432 0.6560 0.6082 0.5529 0.5514 0.5746 0.6334 0.6677 0.7103 0.7889 0.7809 0.7835 0.7253 0.7860 0.8584 0.7096 0.5981 0.5397 0.3805 0.3296 0.4480 0.6064 0.5432 0.4816 0.5463 0.6835 0.8556 0.9613 1.1924 1.5443 1.8392 1.9061 1.8311 1.5450 0.9680 0.7035 0.5320 0.7377 0.3850 0.2677 0.3250 0.4161 0.3050 0.2914 0.2992 0.2731 0.2806 0.2979 0.3318 0.4442 0.5024 0.6338 0.7205 0.9166 0.9660 0.9741 0.9199 0.6974 0.5074 0.3556 0.3392 0.2608 0.2407 0.2110 0.2094 0.2060 0.2542 0.2151 0.2318 0.3384
2.4603 2.7138 2.3987 2.5421 2.2056 2.0411 1.7114 1.4467 1.2803 1.0045 0.5544 0.4144 0.4176 0.4520 0.4740 0.2905 0.3405 0.4524 0.4838 0.4911 0.6034 0.6377 0.5678 0.4543 0.4505 0.5124 0.6014 0.6361 0.6670 0.7136 0.7424 0.7245 0.7963 0.7192 0.5986 0.6371 0.7454 0.7641 0.9773 1.1147 1.0373 1.0090 0.8162 0.6721 0.6327 0.6499 0.7029 0.7586 0.7715 0.8165 0.9040 0.8206 0.7153 0.6719 0.7127 0.7334 0.6986 0.6165 0.5415 0.5363 0.6635 0.6820 0.6035 0.5577 0.5507 0.5852 0.6404 0.6605 0.7203 0.7192 0.7209 0.6490 0.6003 0.7291 0.6852 0.5878 0.5629 0.4318 0.3082 0.4210 0.5988 0.6517 0.6396 0.6974 0.9410 1.1164 1.2160 1.4487 1.5052 1.6671 1.5947 1.3699 0.9365 0.5794 0.8558 0.3378 0.3569 0.5377 0.3844 0.3500 0.3594 0.3066 0.2994 0.4264 0.4431 0.4913 0.6045 0.6219 0.7490 0.9326 1.0113 1.0822 1.1293 0.9863 0.9605 0.8874 0.6404 0.4789 0.4226 0.3979 0.3542 0.3313 0.3126 0.3048 0.2795 0.2554 0.2749 0.3032 0.3365
1.2167 1.9406 2.2525 1.2856 1.0578 0.9677 0.8486 0.8189 0.7619 0.6920 0.5252 0.4470 0.4472 0.4179 0.4752 0.4364 0.3777 0.4829 0.5645 0.4971 0.5436 0.6059 0.5656 0.4804 0.4392 0.4758 0.5821 0.6661 0.6780 0.7500 0.7648 0.7262 0.8164 0.8046 0.6211 0.5674 0.7064 0.9631 1.1850 1.1562 1.0420 1.0899 0.8840 0.6792 0.6714 0.6405 0.6789 0.7425 0.7252 0.7811 0.9837 0.9003 0.6958 0.6131 0.6633 0.6483 0.6233 0.5811 0.5369 0.4626 0.5046 0.5914 0.6053 0.5717 0.5365 0.5310 0.5536 0.5499 0.6155 0.6104 0.6346 0.6342 0.5356 0.6682 0.7140 0.5789 0.5337 0.4426 0.3594 0.4717 0.7228 0.8358 0.8876 1.0229 1.1942 1.3389 1.3797 1.3757 1.2624 1.2703 1.0698 0.9133 0.7108 0.2893 0.2320 0.3163 0.4116 0.4670 0.4882 0.5032 0.5992 0.6493 0.5965 0.6547 0.7811 0.7874 1.0088 1.0446 1.0335 1.1798 1.1862 1.1747 1.0269 0.9582 0.8003 0.7475 0.5798 0.4658 0.4721 0.4576 0.4356 0.4118 0.3717 0.3578 0.3593 0.3095 0.3130 0.3738 0.4285
0.9567 1.1715 1.6144 1.0175 0.9202 0.8112 0.8430 0.8128 0.8079 0.7702 0.7098 0.5704 0.5262 0.5615 0.5337 0.5329 0.4605 0.5389 0.6511 0.6078 0.5614 0.6434 0.5718 0.5094 0.4747 0.4895 0.5734 0.6323 0.6669 0.7081 0.6847 0.7080 0.8278 0.8720 0.6855 0.5928 0.8026 1.0417 1.2818 1.2791 0.9765 1.0223 0.9558 0.7615 0.7142 0.6816 0.7093 0.7873 0.7023 0.6959 0.8538 0.9300 0.7985 0.6369 0.6173 0.6186 0.5578 0.5162 0.5003 0.4637 0.4281 0.4733 0.5382 0.5477 0.5321 0.5315 0.5550 0.5207 0.5563 0.5526 0.5647 0.6513 0.5497 0.5942 0.6987 0.6061 0.5700 0.5595 0.5011 0.6176 0.8564 1.1151 1.2123 1.2686 1.3538 1.3475 1.2902 1.0276 0.8783 1.1758 1.0523 0.3173 0.3781 0.4005 0.4020 0.5212 0.7030 0.7823 0.8657 0.8591 0.9820 1.0831 1.0985 1.0642 1.2281 1.2037 1.2811 1.3759 1.2690 1.2838 1.1918 1.1162 0.9625 0.8823 0.7215 0.6748 0.5812 0.4891 0.4611 0.4459 0.4476 0.4328 0.4056 0.3891 0.3833 0.3635 0.3558 0.3955 0.4454
0.6090 0.7266 0.8804 0.6793 0.5868 0.5057 0.5526 0.5076 0.5300 0.5414 0.6019 0.6124 0.5899 0.6387 0.5377 0.5125 0.5096 0.6037 0.7532 0.7719 0.7473 0.7178 0.5903 0.4974 0.4766 0.4964 0.5686 0.6652 0.6666 0.6685 0.6662 0.6522 0.7994 0.9429 0.7777 0.6211 0.8192 1.1322 1.2881 1.2431 0.9570 1.0251 1.0575 0.8423 0.7785 0.7109 0.7682 0.8563 0.6030 0.4970 0.6410 0.6599 0.6730 0.6674 0.6304 0.6301 0.5868 0.5124 0.4985 0.4686 0.4132 0.4055 0.4574 0.5012 0.5083 0.5211 0.5157 0.4914 0.5387 0.5764 0.5552 0.6184 0.5360 0.5588 0.7525 0.6775 0.6165 0.7350 0.7649 0.8371 1.1003 1.3899 1.4160 1.4288 1.3145 1.1878 0.9760 0.8528 1.1755 0.7412 0.7826 0.7713 0.4772 0.5735 0.6963 0.9560 1.0387 1.1588 1.3116 1.2807 1.3343 1.4498 1.5784 1.5313 1.5508 1.6531 1.4888 1.5543 1.4513 1.3044 1.1846 1.0902 0.9307 0.8712 0.7020 0.6543 0.5882 0.4903 0.4597 0.4247 0.4427 0.4263 0.3979 0.3799 0.3754 0.3574 0.3402 0.3208 0.4101
0.4809 0.5084 0.4919 0.4691 0.4006 0.3629 0.3653 0.3427 0.3173 0.2859 0.3594 0.4722 0.5445 0.5973 0.5559 0.4903 0.5018 0.5955 0.8026 0.8816 0.9837 0.9733 0.7077 0.5314 0.4894 0.5034 0.5881 0.6904 0.7219 0.6307 0.6074 0.6385 0.6995 0.9099 0.8702 0.6972 0.8233 1.1860 1.3350 1.3121 1.1108 1.0307 1.1370 0.8798 0.8066 0.7534 0.7020 0.7985 0.6970 0.4300 0.4644 0.5282 0.4885 0.5173 0.5584 0.5939 0.5842 0.5353 0.5006 0.4653 0.3957 0.3708 0.4105 0.4460 0.4433 0.4779 0.5000 0.4787 0.5658 0.6011 0.5347 0.6029 0.5486 0.5435 0.8104 0.7965 0.7811 0.9811 1.0124 1.1199 1.3816 1.5981 1.5053 1.3453 1.1221 1.0089 1.1460 0.8713 0.6359 0.6737 0.6111 0.7347 0.7740 1.0299 1.2431 1.4067 1.3109 1.4164 1.5384 1.7095 1.5744 1.6601 1.8031 1.7506 1.6582 1.7773 1.5055 1.5418 1.4342 1.2113 1.1150 0.9982 0.8652 0.8140 0.6900 0.6182 0.5601 0.4821 0.4237 0.4368 0.4270 0.4155 0.3960 0.3488 0.3188 0.2869 0.2766 0.3105 0.3555
0.4670 0.4534 0.4497 0.4306 0.3802 0.3656 0.3339 0.3373 0.3255 0.2975 0.3272 0.4372 0.4243 0.5131 0.5159 0.4855 0.5042 0.5634 0.7877 0.9350 1.0727 1.1496 0.9938 0.8214 0.6944 0.5867 0.6657 0.7772 0.7977 0.7015 0.5633 0.5158 0.6146 0.8537 0.9181 0.7526 0.8498 1.3024 1.4815 1.2988 1.1404 1.0659 1.1769 1.0151 0.7845 0.7675 0.6338 0.6313 0.6420 0.5078 0.4525 0.5497 0.4614 0.3935 0.4181 0.5196 0.5713 0.5319 0.4820 0.4597 0.4164 0.3552 0.3636 0.3999 0.3882 0.4305 0.4959 0.4595 0.5320 0.6332 0.6088 0.6335 0.5684 0.5799 0.8262 0.9494 1.0616 1.1793 1.2968 1.3873 1.5129 1.6106 1.4841 1.3093 1.2715 1.2784 0.6059 0.7431 0.6194 0.7359 0.8875 1.0337 1.2274 1.3775 1.5753 1.5339 1.4738 1.4562 1.5588 1.8276 1.6698 1.6476 1.7467 1.7396 1.6144 1.6504 1.3421 1.3061 1.2685 1.0481 0.9913 0.8760 0.7757 0.6757 0.6204 0.5259 0.5094 0.4597 0.4179 0.4185 0.4132 0.3993 0.3878 0.3502 0.3160 0.2941 0.2436 0.2612 0.3024
0.4712 0.4418 0.4354 0.4605 0.4220 0.4158 0.3892 0.3444 0.3584 0.3709 0.3739 0.4114 0.4346 0.4882 0.5030 0.4646 0.4695 0.5058 0.6852 0.8740 1.0953 1.1772 1.0546 0.9081 0.8749 0.7834 0.7970 0.9093 0.9951 1.0149 0.8770 0.5966 0.5450 0.7528 1.2086 1.0528 0.7669 1.1272 1.4554 1.3516 1.1760 1.0572 1.0852 1.0237 0.8357 0.8025 0.7146 0.6424 0.6166 0.5499 0.4362 0.5179 0.5379 0.4191 0.3709 0.4582 0.5575 0.5397 0.4827 0.4585 0.4088 0.3577 0.3716 0.4128 0.3822 0.4132 0.4998 0.4637 0.5249 0.6451 0.5791 0.6432 0.7254 0.7469 0.9635 1.1855 1.2647 1.3811 1.5712 1.4186 1.4639 1.8914 1.8420 1.6284 0.8482 0.8998 0.6163 0.7602 0.8657 0.9790 1.1470 1.3501 1.4804 1.5385 1.6262 1.5355 1.5999 1.4403 1.4078 1.6275 1.5412 1.4602 1.5387 1.5923 1.4000 1.3537 1.2427 1.0528 1.1068 0.9234 0.8566 0.7868 0.7238 0.6200 0.5844 0.4975 0.4784 0.4484 0.4289 0.4100 0.3987 0.3942 0.3537 0.3297 0.3003 0.3257 0.2702 0.2446 0.3686
0.4460 0.4203 0.4391 0.4426 0.4132 0.3897 0.3919 0.3709 0.3574 0.3699 0.3884 0.4144 0.4380 0.4872 0.4960 0.4475 0.4341 0.4464 0.5809 0.7413 0.9802 1.1420 0.9919 0.8589 0.8175 0.8234 0.8227 0.8662 0.9612 1.0668 1.1564 1.0118 0.7480 0.7923 1.0872 1.2496 1.0322 1.0527 1.2195 1.2527 1.1989 0.9819 1.0431 1.0788 0.9098 0.8676 0.7809 0.6966 0.6531 0.5760 0.4254 0.4752 0.5381 0.5027 0.4088 0.4203 0.5632 0.5817 0.5012 0.4629 0.4315 0.3769 0.3906 0.4319 0.3919 0.4139 0.5086 0.4685 0.4952 0.6642 0.7488 0.8155 0.9274 1.0624 1.1822 1.4127 1.5324 1.5468 1.5241 1.0652 1.6556 3.3345 1.2876 1.0222 1.0372 0.8799 0.9055 1.0310 1.1739 1.2185 1.3539 1.4911 1.5938 1.5258 1.5228 1.5284 1.5604 1.3001 1.2082 1.3808 1.3903 1.1913 1.2425 1.3547 1.2073 1.0665 1.1267 0.9101 0.9615 0.8203 0.7347 0.7332 0.7009 0.6313 0.6051 0.5301 0.4822 0.4497 0.4191 0.3962 0.3909 0.4070 0.3849 0.3630 0.3133 0.3045 0.3050 0.2251 0.3059
0.4048 0.3870 0.4167 0.4116 0.3739 0.3804 0.3621 0.3597 0.3914 0.3938 0.3511 0.4283 0.4425 0.4832 0.5078 0.4489 0.4224 0.4081 0.4824 0.6162 0.8146 1.0580 0.9480 0.7996 0.7357 0.7540 0.7792 0.7983 0.8461 0.9194 0.9977 1.1047 0.9759 0.8781 0.9851 1.1498 1.0623 1.0499 1.0971 1.0104 1.0855 0.8945 0.8941 1.0467 0.9320 0.8576 0.7861 0.6981 0.6696 0.6219 0.4540 0.4368 0.6011 0.5376 0.4799 0.4720 0.5789 0.6000 0.5311 0.4934 0.4499 0.3984 0.3952 0.4590 0.4249 0.4601 0.5457 0.4873 0.5845 0.8030 0.9144 1.0668 1.3502 1.3657 1.3664 1.6809 1.6433 1.4909 1.1660 0.5603 1.4090 4.9782 2.3382 1.4444 1.0644 1.0030 1.2394 1.2023 1.4065 1.4230 1.3651 1.4549 1.5710 1.4128 1.4658 1.5079 1.4348 1.1945 1.0590 1.1002 1.2168 0.9610 0.9725 1.0904 1.0723 0.9211 0.9361 0.7270 0.7485 0.7475 0.6295 0.6834 0.6478 0.5986 0.5698 0.5199 0.4702 0.4345 0.4110 0.3839 0.3761 0.3985 0.4148 0.4038 0.3861 0.2823 0.2918 0.2688 0.3196
0.3392 0.3006 0.3757 0.3646 0.3642 0.3350 0.3538 0.3652 0.3579 0.3792 0.3842 0.4495 0.4743 0.4727 0.4942 0.4579 0.4147 0.3859 0.4091 0.4831 0.6529 0.9617 0.9478 0.7762 0.6883 0.6622 0.7052 0.7171 0.7470 0.7994 0.8304 0.8912 0.9105 0.8524 0.8524 0.9007 0.8338 0.8767 1.0054 0.8550 0.8886 0.8669 0.7366 0.8964 0.9066 0.8145 0.7824 0.6873 0.6362 0.6167 0.5124 0.4434 0.5865 0.6433 0.5631 0.4981 0.5744 0.6430 0.5719 0.5087 0.4744 0.4308 0.4689 0.5381 0.4995 0.5084 0.6075 0.6458 0.7721 1.0745 1.2014 1.3866 1.5984 1.5505 1.6428 1.7233 1.5224 1.1556 0.8342 0.5903 0.4856 2.0320 2.4747 1.2566 1.1614 1.1579 1.2847 1.3267 1.5276 1.5229 1.3933 1.4521 1.5787 1.4498 1.3956 1.4702 1.2716 1.0808 0.9185 0.8558 0.9765 0.8644 0.7975 0.8625 0.8926 0.7793 0.7280 0.6550 0.5715 0.6615 0.5898 0.6285 0.6316 0.5949 0.5586 0.5161 0.4329 0.4097 0.3873 0.3676 0.3626 0.3848 0.4157 0.4254 0.3880 0.3395 0.2970 0.3171 0.3530
0.2636 0.2152 0.2940 0.3035 0.3346 0.3612 0.3229 0.3538 0.3641 0.3415 0.3812 0.4314 0.5010 0.4865 0.4783 0.4481 0.3910 0.3685 0.3631 0.3980 0.5257 0.8214 0.9119 0.7709 0.6777 0.6135 0.6304 0.6545 0.6632 0.6953 0.7158 0.7737 0.7818 0.7402 0.7598 0.7487 0.6177 0.6856 0.8378 0.8307 0.7755 0.8551 0.7023 0.7638 0.8870 0.7531 0.7104 0.6698 0.6242 0.6379 0.5721 0.4725 0.6372 0.7328 0.6345 0.5276 0.5889 0.6754 0.6136 0.5215 0.4910 0.5046 0.5375 0.6215 0.6131 0.6792 0.8803 0.9451 1.1245 1.3500 1.4525 1.6978 1.6493 1.6252 1.6630 1.5887 1.2613 0.9830 0.6798 0.4638 0.2107 0.5065 1.4852 1.0718 1.2095 1.2869 1.3650 1.4765 1.5551 1.6300 1.5004 1.5348 1.5401 1.5466 1.3371 1.3207 1.0750 1.0110 0.7956 0.7559 0.8249 0.7894 0.6777 0.6817 0.7812 0.6548 0.5790 0.6301 0.5505 0.6032 0.5773 0.5886 0.5939 0.5822 0.5542 0.5186 0.4399 0.4076 0.3772 0.3529 0.3385 0.3513 0.4156 0.3951 0.4011 0.3722 0.3564 0.3780 0.3952
0.2195 0.2125 0.2659 0.3010 0.2913 0.3334 0.3320 0.3348 0.3383 0.3577 0.4011 0.4397 0.5150 0.4968 0.4539 0.4387 0.3859 0.3309 0.3331 0.3623 0.4694 0.6922 0.8146 0.7039 0.6213 0.5785 0.5832 0.6136 0.6299 0.6339 0.6185 0.6383 0.6652 0.6063 0.6107 0.6605 0.5435 0.5102 0.7220 0.8226 0.7451 0.8317 0.6858 0.6835 0.8663 0.8132 0.7005 0.6380 0.6138 0.6070 0.5943 0.5425 0.6495 0.7914 0.7206 0.5864 0.5736 0.7108 0.6874 0.5826 0.5861 0.5521 0.5730 0.7050 0.8269 0.9580 1.1189 1.3035 1.4429 1.5364 1.6094 1.6653 1.5411 1.6608 1.5164 1.2692 1.1946 0.7333 0.7489 0.3923 0.3642 0.4276 1.0779 1.0843 1.3883 1.4868 1.5300 1.6743 1.5787 1.7084 1.5463 1.4256 1.4306 1.5016 1.2313 1.1562 1.0196 0.9039 0.7457 0.6864 0.7490 0.7103 0.5882 0.5633 0.6350 0.5922 0.5423 0.5736 0.5191 0.5626 0.5603 0.5499 0.5999 0.5576 0.5394 0.5059 0.4428 0.3861 0.3941 0.3538 0.3299 0.3448 0.3490 0.3846 0.4158 0.3987 0.3808 0.3950 0.5082
0.2041 0.2237 0.2533 0.2894 0.2948 0.3044 0.3077 0.3055 0.3238 0.3518 0.3852 0.4565 0.5414 0.5147 0.4293 0.3808 0.3491 0.3240 0.3012 0.2785 0.4021 0.6110 0.7169 0.6290 0.5318 0.5277 0.5240 0.5654 0.5924 0.5914 0.5732 0.5662 0.5778 0.5004 0.4651 0.5683 0.5314 0.4459 0.5964 0.8264 0.7326 0.7869 0.7327 0.6055 0.7839 0.8664 0.6844 0.5981 0.6439 0.6722 0.6582 0.5548 0.6340 0.8318 0.7741 0.6495 0.6095 0.7470 0.7459 0.6156 0.5810 0.6095 0.7074 0.8872 1.0319 1.1512 1.4582 1.5721 1.5930 1.6553 1.6699 1.5753 1.5092 1.5154 1.6120 1.2205 0.9100 0.8212 0.5591 0.5624 0.6717 0.7492 1.0626 1.3673 1.5943 1.7852 1.7765 1.8464 1.6379 1.7197 1.5463 1.3599 1.4169 1.3614 1.1291 1.0708 1.0163 0.8341 0.7571 0.6410 0.6769 0.6952 0.5680 0.5251 0.5288 0.5533 0.5126 0.5252 0.5006 0.5274 0.5409 0.5452 0.5725 0.5600 0.5386 0.5151 0.4677 0.3792 0.3389 0.3814 0.3370 0.3142 0.3207 0.3121 0.4205 0.4049 0.4164 0.4798 0.4920
0.2086 0.2405 0.2346 0.2692 0.2665 0.2682 0.2738 0.2963 0.3036 0.3329 0.3872 0.4363 0.5322 0.5410 0.4274 0.3743 0.3461 0.2967 0.2713 0.2642 0.3570 0.5275 0.5906 0.5736 0.4741 0.4396 0.4737 0.5017 0.5494 0.5572 0.5275 0.5067 0.5330 0.4824 0.4152 0.4812 0.5064 0.4497 0.5347 0.8054 0.7814 0.7629 0.7809 0.5900 0.6818 0.8100 0.7491 0.6581 0.6118 0.6326 0.6847 0.6491 0.6553 0.7561 0.8094 0.7169 0.6302 0.7514 0.8131 0.7900 0.7992 0.8031 0.9295 1.1201 1.2885 1.4952 1.7587 1.7848 1.7574 1.7259 1.6354 1.4827 1.5288 2.0525 1.4292 1.0294 0.9695 0.7285 0.6962 0.8102 1.0045 1.2461 1.3064 1.7433 1.8222 2.0874 1.9679 1.8068 1.7170 1.6211 1.5377 1.3534 1.3100 1.2713 1.1010 0.9822 1.0365 0.7965 0.7644 0.6587 0.6390 0.6628 0.5678 0.5203 0.4953 0.5326 0.4820 0.5002 0.5072 0.4966 0.5303 0.5362 0.5439 0.5437 0.5309 0.5117 0.4716 0.4217 0.3241 0.3050 0.3618 0.3203 0.3167 0.3036 0.3645 0.4464 0.4405 0.5384 0.6111
0.2077 0.2880 0.2165 0.2330 0.2561 0.2663 0.2561 0.2679 0.3148 0.3282 0.3509 0.3659 0.4975 0.5718 0.4363 0.3457 0.3349 0.2981 0.2402 0.2167 0.3678 0.5213 0.4989 0.4836 0.4429 0.3781 0.3872 0.4272 0.4714 0.5002 0.5163 0.5178 0.5223 0.4803 0.4029 0.4546 0.4970 0.5003 0.5524 0.7700 0.7936 0.7913 0.8339 0.6123 0.6895 0.7941 0.7156 0.6617 0.6442 0.6451 0.7444 0.7729 0.7206 0.7539 0.8546 0.7720 0.7335 0.8993 1.0432 1.1209 1.1351 1.1750 1.2454 1.3989 1.5097 1.6664 1.8551 1.7144 1.6278 1.5361 1.4846 1.7834 1.8715 1.2166 1.3145 0.8962 0.9163 0.9490 1.0649 1.2067 1.4839 1.6990 1.6510 1.9863 1.9288 2.2236 1.9593 1.7775 1.7171 1.4889 1.5076 1.2452 1.1349 1.1350 1.0969 0.9258 1.0066 0.8242 0.7709 0.6902 0.6712 0.6911 0.5716 0.5173 0.5110 0.5192 0.4875 0.4983 0.5315 0.5075 0.5263 0.5177 0.5153 0.5218 0.5227 0.5146 0.4797 0.4523 0.3672 0.2821 0.2450 0.3364 0.3226 0.2964 0.3572 0.4474 0.5618 0.6604 0.8811
0.1986 0.3988 0.2824 0.2299 0.2410 0.2427 0.2674 0.2459 0.2552 0.2984 0.3540 0.3795 0.4697 0.5715 0.4664 0.3071 0.2735 0.2704 0.2347 0.2367 0.4112 0.5320 0.4506 0.3908 0.3503 0.3366 0.3284 0.3541 0.4228 0.4759 0.4661 0.4907 0.5538 0.5261 0.4506 0.4653 0.5815 0.6043 0.5190 0.7505 0.8466 0.8192 0.8129 0.6408 0.6660 0.8224 0.7850 0.6893 0.6868 0.7165 0.8416 0.8953 0.8284 0.7636 0.9524 0.9689 1.0562 1.1914 1.3738 1.5150 1.4902 1.4812 1.5362 1.6405 1.6235 1.6523 1.7103 1.5000 1.5275 1.8466 1.7379 1.3844 1.1910 1.0174 1.0361 0.9601 1.0448 1.1689 1.3287 1.5423 1.8091 1.9460 1.9858 1.9463 1.9562 2.0779 1.9471 1.7079 1.6493 1.4012 1.4043 1.1907 1.0603 1.0639 1.0521 0.8858 0.9333 0.8691 0.7446 0.7195 0.6694 0.7528 0.6531 0.5307 0.5440 0.5407 0.5196 0.5114 0.5311 0.5269 0.5227 0.5206 0.5059 0.5014 0.5107 0.5415 0.5076 0.4474 0.4075 0.3125 0.2477 0.2510 0.3716 0.3268 0.3709 0.6088 0.7892 0.8545 1.3577
0.2336 0.1545 0.4465 0.2656 0.2500 0.2062 0.2480 0.2920 0.2875 0.3122 0.3683 0.4157 0.5238 0.5712 0.4208 0.2949 0.2603 0.2466 0.2542 0.2859 0.4445 0.5396 0.4306 0.3554 0.3124 0.2787 0.2669 0.2936 0.3796 0.4632 0.4846 0.5161 0.5710 0.5580 0.4894 0.5128 0.6422 0.6102 0.5392 0.7497 0.8870 0.8493 0.8214 0.7493 0.7180 0.8666 0.8368 0.7632 0.7683 0.8280 0.9585 1.0454 0.9394 0.9625 1.2154 1.3861 1.5492 1.6565 1.6845 1.7182 1.7200 1.7087 1.6700 1.7380 1.5739 1.5248 1.7118 1.8881 1.8598 1.4950 1.1496 1.4695 1.0358 1.0340 1.0388 1.0596 1.2485 1.3542 1.6190 1.9038 2.0487 2.1480 2.2258 1.9360 1.9925 1.8924 1.8673 1.5607 1.5039 1.3724 1.2234 1.1250 1.0117 1.0444 1.0089 0.9246 0.8881 0.9372 0.7299 0.7613 0.6923 0.7622 0.7435 0.5974 0.5567 0.5691 0.5562 0.5297 0.5440 0.5323 0.5237 0.5217 0.5170 0.5138 0.5096 0.4741 0.5261 0.4696 0.4256 0.3353 0.2679 0.2838 0.4033 0.4470 0.5817 0.9031 1.0405 1.0731 1.7105
0.0529 0.1118 0.2852 0.3113 0.2376 0.2294 0.2648 0.3031 0.3093 0.3713 0.4293 0.4663 0.5691 0.5572 0.3937 0.2737 0.2479 0.2399 0.2530 0.3511 0.5413 0.5491 0.4018 0.3145 0.2683 0.2597 0.2674 0.2946 0.3626 0.4486 0.4906 0.5351 0.6057 0.6006 0.5326 0.5369 0.6590 0.6725 0.6235 0.7119 0.8649 0.9057 0.8782 0.8753 0.7922 0.9122 0.9763 0.9476 1.0115 1.0142 1.0629 1.1890 1.2491 1.3855 1.6087 1.8648 1.9719 1.8859 1.7980 1.7727 1.7280 1.6120 1.5476 1.5686 1.8483 2.2165 1.7902 1.2611 1.1330 1.4224 1.3435 1.1241 1.1052 1.0066 1.1322 1.2562 1.4687 1.6873 2.0428 2.2326 2.2642 2.3574 2.3364 1.9229 1.9477 1.6726 1.7685 1.5259 1.3541 1.2671 1.1388 1.0941 0.9781 1.0284 0.9840 0.9803 0.8674 0.9870 0.7824 0.7493 0.7268 0.7280 0.8094 0.6823 0.5862 0.5901 0.6037 0.5582 0.5556 0.5439 0.5344 0.5362 0.5573 0.5652 0.5253 0.4711 0.4269 0.4594 0.3981 0.3651 0.3216 0.3983 0.5941 0.7920 0.9853 1.1659 1.1901 1.2529 1.7940
0.0804 0.1361 0.2680 0.2886 0.2436 0.2508 0.2747 0.3239 0.3579 0.4157 0.4712 0.4767 0.5578 0.5610 0.3963 0.2767 0.2339 0.2274 0.3083 0.4718 0.6508 0.5735 0.4065 0.2852 0.2324 0.2376 0.2622 0.2816 0.3756 0.4858 0.4912 0.5404 0.6310 0.6391 0.6054 0.6282 0.7071 0.6807 0.7131 0.7975 0.9329 0.9322 0.9396 1.0049 0.9399 1.1391 1.2289 1.2459 1.2690 1.2734 1.3344 1.5174 1.5359 1.6840 1.8687 2.1635 2.0434 1.7556 1.6407 1.6071 1.8390 1.9704 1.9185 1.4246 1.2217 1.6376 1.3608 1.1931 1.1454 1.0663 1.0860 1.0266 1.1748 1.1607 1.4324 1.6682 1.8688 2.2152 2.4383 2.5270 2.4376 2.3876 2.2476 1.8692 1.6794 1.5595 1.6996 1.4218 1.2172 1.1585 1.0750 1.0604 0.9547 0.9357 0.9881 0.9416 0.8714 0.9098 0.8525 0.7268 0.7435 0.7142 0.8172 0.7417 0.6256 0.6010 0.6229 0.5999 0.5781 0.5712 0.5522 0.5426 0.5320 0.5593 0.5862 0.4709 0.4077 0.4277 0.4399 0.4837 0.5653 0.6708 0.9739 1.1422 1.2260 1.2498 1.2523 1.2422 1.4531
0.0659 0.1488 0.2930 0.2925 0.2540 0.2778 0.3249 0.3690 0.3967 0.4480 0.4882 0.5001 0.5837 0.5622 0.3825 0.2440 0.2240 0.2638 0.4258 0.6709 0.7074 0.5458 0.3805 0.2561 0.2198 0.2680 0.3045 0.3257 0.4229 0.5278 0.5604 0.6066 0.6617 0.6991 0.6901 0.7144 0.7339 0.8568 0.9327 0.7775 0.9610 1.0768 1.1047 1.1243 1.2209 1.4056 1.4704 1.5873 1.5835 1.5913 1.6210 1.6952 1.6964 1.7809 1.8165 2.0418 1.7163 1.4511 1.7288 2.2062 1.6341 0.9682 1.1222 1.3426 1.1451 1.3179 1.2913 1.0306 1.0410 0.9796 1.0386 1.1739 1.3893 1.6027 1.9878 2.2490 2.4377 2.6118 2.6578 2.6878 2.4613 2.3045 2.0274 1.7632 1.5543 1.4864 1.4954 1.3053 1.1827 1.1268 1.0281 1.0039 0.9279 0.9060 0.9616 0.9345 0.8993 0.8574 0.8753 0.7412 0.7382 0.7301 0.8291 0.7961 0.6726 0.6257 0.6365 0.6180 0.5909 0.5967 0.5980 0.6078 0.5370 0.5021 0.5725 0.5084 0.4302 0.5065 0.6281 0.8058 0.9238 1.0907 1.2072 1.3341 1.2496 1.1808 1.1723 1.1646 1.0704
0.1018 0.1777 0.2983 0.3124 0.2928 0.3141 0.3443 0.4078 0.4278 0.4940 0.5519 0.5679 0.6291 0.5334 0.3264 0.2328 0.2332 0.3830 0.6998 0.8411 0.7051 0.4765 0.3240 0.2601 0.2717 0.3070 0.3466 0.4087 0.5228 0.5904 0.6380 0.6889 0.7662 0.7812 0.7651 0.8070 0.8388 1.0359 0.9866 0.9122 1.1084 1.2085 1.2906 1.3439 1.4950 1.6405 1.7550 1.8597 1.7469 1.7338 1.6922 1.6250 1.5488 1.5457 1.5799 1.8566 1.7538 1.6671 1.6776 1.3895 1.3751 1.1652 0.9904 1.0330 0.9243 0.9646 1.0192 1.0137 1.0152 1.1155 1.2926 1.5682 1.8967 2.2073 2.4344 2.6332 2.7443 2.7503 2.6237 2.4411 2.3593 2.0668 1.8484 1.8255 1.4849 1.4582 1.3968 1.3318 1.1667 1.1198 1.0697 0.9978 0.9570 0.9451 0.9624 0.9433 0.8680 0.8703 0.8675 0.7538 0.7480 0.7267 0.7810 0.8560 0.7142 0.6348 0.6517 0.6462 0.6082 0.6258 0.5973 0.6285 0.5523 0.4861 0.5807 0.5992 0.5443 0.7185 0.9620 1.2108 1.3294 1.3263 1.3047 1.2254 1.0320 1.1376 1.1180 1.0736 0.9332
0.1161 0.1780 0.3053 0.3398 0.3073 0.3326 0.3802 0.4483 0.4666 0.5371 0.6199 0.6095 0.6126 0.4808 0.2998 0.2575 0.3022 0.5551 0.9053 0.8581 0.6010 0.3908 0.2982 0.2947 0.3219 0.3820 0.4607 0.5732 0.6787 0.7280 0.7817 0.8167 0.8520 0.8791 0.9349 0.9669 1.0446 1.1700 1.1748 1.1399 1.2741 1.4047 1.5846 1.5250 1.7583 1.8441 1.8539 1.8653 1.6881 1.5960 1.4054 1.3326 1.4693 1.7252 1.8343 2.3902 1.8221 1.2076 1.3004 1.3969 1.1600 0.9422 0.8747 0.9534 0.9640 0.9722 1.0494 1.1327 1.2708 1.4921 1.8229 2.1757 2.4069 2.5952 2.4857 2.7756 2.7653 2.5965 2.3846 2.2538 2.1580 1.8936 1.7713 1.7792 1.3810 1.4913 1.3537 1.4028 1.1555 1.1290 1.0696 1.0423 0.9885 0.9551 1.0121 0.9845 0.8899 0.8665 0.9084 0.7765 0.7488 0.7808 0.7361 0.8401 0.7767 0.6444 0.6172 0.6584 0.5988 0.6088 0.6156 0.6285 0.6440 0.4391 0.5613 0.8077 0.8439 1.0372 1.3784 1.5664 1.5050 1.3519 1.1431 0.9482 1.0326 0.9148 1.0555 1.1369 1.0015
0.1248 0.1925 0.3184 0.3451 0.3265 0.3562 0.4066 0.4904 0.5106 0.5741 0.6452 0.5984 0.5918 0.4306 0.3042 0.3204 0.3649 0.7448 1.0398 0.8070 0.5014 0.3466 0.3025 0.3435 0.4224 0.5535 0.7109 0.8309 0.8889 0.8990 0.9758 0.9910 1.0159 1.0617 1.1086 1.1903 1.3218 1.3855 1.4152 1.3965 1.6277 1.6940 1.8136 1.7763 1.9227 1.7916 1.8084 1.6389 1.4188 1.2966 1.2428 1.6539 2.3036 2.1421 2.0549 1.8687 1.3735 1.2496 1.0367 0.9275 0.9452 0.9059 0.9178 0.9601 1.1003 1.1439 1.2311 1.5181 1.7026 2.1460 2.3206 2.6673 2.6644 2.7173 2.5062 2.7313 2.5319 2.4061 2.2567 2.1814 1.9695 1.8295 1.7063 1.6967 1.3895 1.3568 1.3007 1.3763 1.1469 1.0961 1.0289 1.0276 1.0644 0.9352 0.9825 1.0006 0.9691 0.8765 0.9156 0.8592 0.7207 0.7866 0.7722 0.8031 0.8080 0.6891 0.6104 0.6499 0.6237 0.5616 0.5861 0.5278 0.6778 0.5897 0.6519 1.0276 1.2692 1.4837 1.6929 1.6859 1.4344 1.0984 0.8408 0.8426 0.7354 0.8390 0.9813 1.2301 1.3370
0.1415 0.2052 0.3232 0.3669 0.3466 0.3692 0.4313 0.5327 0.5373 0.5947 0.6822 0.6055 0.5444 0.4240 0.3794 0.3920 0.5771 1.0223 1.0422 0.6906 0.4152 0.3475 0.4178 0.4928 0.5994 0.7913 1.0052 1.0913 1.1675 1.2013 1.2017 1.1473 1.2565 1.2987 1.4203 1.4965 1.5897 1.6647 1.7483 1.9073 1.8467 1.9497 2.0218 1.8608 1.7901 1.6412 1.4443 1.2702 1.5338 1.6057 1.6049 1.9228 2.2169 1.6493 1.2680 1.7583 1.3891 1.0678 0.8478 0.8503 0.9445 0.9525 1.0425 1.0924 1.3459 1.4608 1.7756 2.2129 2.2641 2.7128 2.8054 2.9446 2.7922 2.7236 2.4802 2.4250 2.4199 2.2153 2.2158 2.0499 1.8881 1.7378 1.6718 1.5417 1.4050 1.2308 1.3070 1.2889 1.1578 1.0647 1.0449 1.0157 1.0639 0.9856 0.9391 0.9870 0.9574 0.8936 0.8620 0.8942 0.7599 0.7484 0.7636 0.7740 0.7870 0.7191 0.6211 0.6312 0.6384 0.5950 0.6137 0.5208 0.6288 0.7238 0.8553 1.3641 1.7129 1.7490 1.8121 1.5449 1.1005 0.8084 0.6890 0.8641 0.9051 1.1245 1.4543 1.9296 2.4914
0.1578 0.2220 0.3367 0.3695 0.3537 0.4051 0.4984 0.5859 0.5570 0.6238 0.7078 0.6222 0.5251 0.4408 0.4737 0.5800 0.9266 1.0566 0.9134 0.5725 0.4297 0.5253 0.6189 0.8039 0.9466 1.1241 1.3139 1.4428 1.5590 1.5258 1.4303 1.4212 1.5533 1.6008 1.7115 1.7760 1.8643 1.9520 2.0175 2.0160 1.7937 1.9381 1.8214 1.6930 1.4348 1.4214 1.4300 1.8352 1.8933 1.3178 1.0309 1.3935 1.7738 1.8645 1.1846 1.1284 1.0554 1.0203 0.9221 0.9252 1.0341 1.1362 1.2943 1.4177 1.8596 1.9696 2.4798 2.7038 2.8839 3.0375 3.1070 2.9754 2.8860 2.6561 2.4626 2.2108 2.2026 2.1104 2.0799 1.8365 1.7426 1.6497 1.5523 1.3323 1.3953 1.1637 1.2704 1.2574 1.2611 1.0447 1.0880 0.9848 1.0517 1.0176 0.9337 0.9714 0.9725 0.9121 0.8897 0.8654 0.7931 0.7532 0.7510 0.7518 0.7574 0.7242 0.6154 0.6167 0.6358 0.5553 0.5692 0.5607 0.6987 0.9705 1.1689 1.6881 2.0032 1.9674 1.7486 1.1868 0.9650 0.6983 0.7222 0.8277 1.2675 2.0718 2.8090 3.7356 4.2250
0.1513 0.2407 0.3537 0.3845 0.4127 0.4463 0.5301 0.6255 0.6038 0.6444 0.7273 0.6303 0.5151 0.5541 0.6277 0.8129 1.0701 0.9632 0.7705 0.5309 0.5505 0.7509 1.0243 1.3485 1.3806 1.4360 1.6055 1.8579 1.8991 1.8527 1.7213 1.6693 1.7397 1.8084 1.8240 1.9076 1.8725 1.9192 1.7951 1.6709 1.6076 1.7125 1.4376 1.6477 1.6743 1.7146 1.3666 1.4668 1.5115 1.3929 1.0474 1.1003 1.1044 1.2004 1.1118 0.9923 1.0546 1.0559 1.1074 1.1247 1.2698 1.5872 1.7903 2.0253 2.5797 2.5937 2.9355 3.0420 3.2494 3.1390 3.1866 2.9095 2.8651 2.5584 2.4651 2.0823 2.0610 2.0025 1.7928 1.6483 1.6114 1.5406 1.4568 1.2576 1.3267 1.0940 1.2150 1.2286 1.2457 1.0376 1.0553 0.9653 0.9849 1.0183 0.8947 0.9722 0.9890 0.9440 0.9060 0.8859 0.8282 0.7618 0.7459 0.7215 0.7383 0.7204 0.6189 0.5689 0.6287 0.5831 0.5171 0.5905 0.8074 1.2812 1.5862 2.0014 2.2392 1.9705 1.4010 1.1766 0.5849 1.0646 1.0623 1.5289 2.2531 3.1547 4.1420 5.0262 4.6859
0.1708 0.2713 0.3832 0.4311 0.4564 0.4776 0.5736 0.6748 0.6373 0.6770 0.7246 0.6043 0.5643 0.6742 0.7062 0.9304 1.1116 1.0311 0.8267 0.6902 0.8348 1.2444 1.6466 1.7265 1.6428 1.6466 1.8358 2.0657 2.0587 1.9779 1.7261 1.6885 1.7081 1.6475 1.6288 1.6544 1.6034 1.6115 1.5380 1.4689 1.4051 1.8771 1.6129 1.4642 1.3074 1.1863 1.0289 1.2539 1.3529 1.1443 0.9321 0.9584 1.0493 1.1020 1.2274 1.1361 1.3076 1.3981 1.4871 1.6912 1.8680 2.2144 2.4618 2.8739 2.8737 3.0701 3.2419 3.2447 3.3529 3.1819 3.0303 2.8882 2.7241 2.4030 2.3292 2.0490 1.8419 1.7624 1.6345 1.5559 1.4988 1.3718 1.3361 1.2458 1.2919 1.1167 1.0917 1.2492 1.2131 1.0593 1.0115 1.0172 0.9505 1.0382 0.8434 0.9460 0.9951 0.9767 0.9208 0.8871 0.8322 0.7549 0.7401 0.7122 0.7104 0.6982 0.6223 0.5308 0.5726 0.6046 0.6237 0.8198 1.1173 1.4997 1.9578 2.2271 2.2448 1.7566 1.2648 0.7629 1.3552 1.3598 2.0099 2.3116 2.7929 3.2785 4.0021 4.2301 3.5563
0.1930 0.3037 0.4281 0.4839 0.5061 0.5201 0.6411 0.7341 0.6801 0.6689 0.6961 0.6258 0.6356 0.7342 0.8042 1.1288 1.3122 1.2670 1.1848 1.2199 1.4214 1.6672 1.8691 1.7225 1.7081 1.7272 1.8249 1.9862 1.8206 1.5461 1.3596 1.4124 1.3434 1.2771 1.2622 1.2737 1.3521 1.5675 1.8001 1.6778 1.5561 1.3484 1.1493 1.0105 1.3109 1.3954 1.0404 0.8889 0.9980 0.8735 0.8503 1.0070 1.1264 1.1888 1.4257 1.5692 1.8704 2.0717 2.3046 2.4793 2.7209 2.9496 3.0281 3.3194 3.1403 3.4258 3.2090 3.1855 3.2419 3.0109 2.9861 2.9087 2.5423 2.2973 2.1592 1.8293 1.6224 1.6564 1.4854 1.5316 1.4030 1.3538 1.2421 1.2645 1.2103 1.2418 1.0217 1.2368 1.2216 1.1225 1.0050 0.9859 0.8942 0.9900 0.8989 0.8554 0.9723 0.9696 0.9190 0.9126 0.8189 0.7316 0.7191 0.6920 0.6944 0.6797 0.6165 0.5133 0.5367 0.5949 0.7296 1.0670 1.4257 1.9139 2.2219 2.1795 2.1116 1.6101 0.7542 1.3469 1.5921 2.2091 2.6865 2.5926 2.4395 2.3160 2.6027 2.6911 2.5202
0.2273 0.3657 0.5027 0.5204 0.5263 0.5504 0.6676 0.7612 0.7213 0.7099 0.7569 0.6729 0.7174 0.8518 0.9930 1.2996 1.5118 1.5301 1.5570 1.6163 1.7366 1.7601 1.6135 1.4491 1.5132 1.6059 1.6603 1.5981 1.2984 1.0466 1.0183 1.0438 1.0227 1.0015 1.0105 1.1890 1.6344 2.0383 1.6144 1.3875 1.2280 1.1878 1.3139 1.2277 0.8777 1.0984 0.9635 0.9327 1.0526 1.0546 0.9772 1.0409 1.3571 1.5387 1.8403 2.1060 2.4476 2.6893 2.9361 3.0535 3.2995 3.4189 3.3967 3.5257 3.3989 3.4300 3.0823 3.0117 3.0345 2.9976 2.8876 2.7303 2.3924 2.2205 1.9943 1.7048 1.5445 1.6006 1.4104 1.4597 1.3770 1.3884 1.3545 1.2954 1.1802 1.2956 1.0521 1.1867 1.2153 1.1050 0.9436 0.9520 0.8351 0.8866 0.9027 0.7904 0.9165 0.9388 0.8928 0.8711 0.8213 0.7248 0.7032 0.6821 0.6431 0.6549 0.5863 0.4814 0.4722 0.6026 0.8299 1.3029 1.7233 2.1367 2.3548 2.0761 1.6578 1.4671 1.4111 1.7029 2.4470 2.7194 2.5933 2.1825 1.7077 1.3302 1.2733 1.6353 1.6950
0.2301 0.4177 0.5714 0.5210 0.5192 0.5546 0.6793 0.8002 0.7554 0.7780 0.8386 0.7782 0.8580 1.0171 1.1495 1.3792 1.6344 1.6071 1.5943 1.5841 1.7436 1.5091 1.2311 1.1460 1.2023 1.3313 1.3367 1.1656 0.9300 0.7607 0.8004 0.8456 0.8930 0.8707 1.0711 1.4932 1.8019 1.8179 1.7111 1.5639 1.3678 1.1015 1.0418 1.2090 0.9600 1.1263 1.1060 1.0144 1.1447 1.3222 1.4526 1.4470 1.8364 2.0835 2.3984 2.6415 2.7940 2.9206 3.2169 3.3683 3.4183 3.5015 3.5557 3.5569 3.3543 3.1747 2.9909 2.9106 2.7727 2.8764 2.6574 2.5289 2.1727 1.9816 1.7882 1.6787 1.5477 1.5437 1.4611 1.4454 1.3902 1.3845 1.4034 1.3660 1.2208 1.2372 1.0294 1.0608 1.1409 1.0737 0.8562 0.8650 0.8063 0.7694 0.8497 0.7640 0.8517 0.8982 0.8816 0.8293 0.8001 0.7137 0.6154 0.6108 0.5909 0.6401 0.5970 0.4498 0.4145 0.6479 1.0098 1.5252 1.9693 2.2570 2.3191 1.9163 1.8226 1.7921 1.9093 2.5935 2.8475 2.5632 2.0005 1.5605 0.9667 0.8325 0.6982 0.8756 1.1636
0.2772 0.4382 0.5491 0.5118 0.5145 0.5437 0.6746 0.8315 0.8452 0.8898 0.9287 0.8647 0.9797 1.1661 1.1349 1.3441 1.5982 1.5802 1.4977 1.6047 1.6422 1.2769 0.9908 0.9045 0.8701 0.9975 0.9528 0.8159 0.7570 0.7574 0.7409 0.7680 0.8628 1.0225 1.1675 1.4709 1.6172 1.8186 1.4054 1.2592 1.3426 1.3171 1.2352 1.3828 1.2219 1.3016 1.4261 1.2941 1.3303 1.6633 2.0198 2.1346 2.4144 2.6582 2.8715 2.9410 2.9580 3.0641 3.1692 3.3626 3.3329 3.3755 3.4590 3.4015 3.2172 2.8817 2.9157 2.5550 2.5287 2.5609 2.3256 2.2132 1.9246 1.7589 1.6185 1.6582 1.4816 1.4981 1.5561 1.4490 1.4348 1.4553 1.3268 1.3108 1.2704 1.1427 1.0199 0.9173 1.0831 1.0453 0.8816 0.7700 0.7454 0.6805 0.7451 0.7141 0.7308 0.8122 0.8392 0.7957 0.7575 0.6793 0.5633 0.5261 0.4724 0.5041 0.5470 0.4690 0.4429 0.7009 1.1844 1.7051 2.1918 2.3213 2.1158 2.1668 1.4513 2.5326 2.6985 3.0099 2.6001 2.0074 1.3366 0.9293 0.5716 0.6016 0.5580 0.5709 0.9453
0.2620 0.4321 0.5630 0.5388 0.5424 0.5661 0.7146 0.9089 0.9071 0.9044 0.9441 0.8136 0.9864 1.1259 1.0091 1.2384 1.5878 1.5941 1.4803 1.6228 1.4958 1.1014 0.8484 0.7062 0.6674 0.8158 0.8277 0.7773 0.7904 0.7695 0.7080 0.8313 1.0398 1.1259 1.1650 1.2164 1.3173 1.1902 1.1506 1.1768 1.4578 1.5349 1.5098 1.6791 1.6349 1.6921 1.9827 2.0277 1.9445 2.1996 2.6109 2.7000 2.8038 2.9445 3.0856 3.1394 3.0454 3.0613 3.1222 3.1678 3.1851 3.1844 3.3169 3.1203 3.1375 2.6794 2.7157 2.2876 2.2164 2.2252 2.0047 1.9163 1.8188 1.6837 1.5810 1.6147 1.4860 1.4905 1.5852 1.4773 1.4747 1.3621 1.3091 1.1425 1.1738 1.0552 1.0161 0.8114 1.0783 1.0702 0.9303 0.7779 0.7320 0.6233 0.6290 0.5973 0.5900 0.6614 0.7047 0.6978 0.6669 0.6264 0.5053 0.4632 0.4077 0.4091 0.5218 0.5329 0.5547 0.8815 1.3726 1.7293 2.1686 2.2765 2.0412 1.7741 2.7993 2.7426 3.0130 2.6684 2.0160 1.3885 0.8757 0.6342 0.5008 0.4887 0.5149 0.6509 1.2493
0.2678 0.4427 0.5822 0.5692 0.5869 0.5815 0.7503 0.9707 0.9178 0.9269 0.8350 0.7062 0.9815 1.0177 0.7840 1.0082 1.3403 1.5493 1.6377 1.7544 1.6506 1.0878 0.7137 0.5008 0.4900 0.6347 0.7822 0.8400 0.9124 0.9364 0.9077 0.9085 0.9454 1.0328 1.0701 1.0449 1.0412 1.1008 1.2857 1.3382 1.6959 1.5890 2.0032 2.0115 2.3027 2.1047 2.5488 2.6762 2.5800 2.8208 2.9569 2.9125 2.9414 3.0870 3.0337 3.2124 3.0480 2.9894 3.0687 3.1881 3.0970 3.0311 3.0052 2.9587 2.7780 2.5618 2.4202 2.0500 1.9643 1.9462 1.8953 1.7616 1.8130 1.6108 1.6274 1.6032 1.6137 1.5342 1.5905 1.4299 1.3411 1.2221 1.2248 1.0472 0.9948 0.9066 0.9311 0.7967 1.0190 1.1130 0.9017 0.7381 0.7019 0.5932 0.5313 0.5228 0.4589 0.4975 0.5971 0.6024 0.5622 0.6546 0.6239 0.5201 0.5504 0.6136 0.7150 0.7730 0.7817 1.0314 1.5070 1.8681 2.1321 2.4442 2.5303 3.2228 2.8690 2.8024 2.6261 2.0361 1.4689 0.9698 0.6478 0.5156 0.4968 0.4690 0.6431 0.7065 0.9876
0.2483 0.4490 0.6072 0.5567 0.6022 0.6403 0.7910 1.0010 0.9446 0.8619 0.6796 0.5906 0.8810 0.9112 0.7030 0.8645 1.1845 1.3611 1.5905 1.7671 1.6242 1.0798 0.5444 0.3510 0.4635 0.6414 0.7834 0.8287 0.9575 1.2005 1.0795 0.9485 1.1873 0.8866 0.9431 1.0633 1.1476 1.2844 1.6039 1.7878 1.9837 2.1402 2.4370 2.3843 2.8949 2.7322 2.8171 2.9378 3.0976 3.1012 3.0195 3.2651 3.1524 3.1426 3.1360 3.2329 3.0277 2.9994 2.9696 2.9183 2.8987 2.7458 2.6925 2.6850 2.4640 2.2894 2.0265 1.8171 1.8117 1.8589 1.8409 1.7063 1.7762 1.6006 1.7011 1.5875 1.5601 1.4631 1.3969 1.2643 1.1527 1.0506 1.0534 0.9688 0.8986 0.8413 0.8125 0.7428 0.8775 1.1016 0.9097 0.6895 0.6482 0.5583 0.4315 0.4246 0.4140 0.5141 0.6619 0.7315 0.8171 0.9627 0.8745 0.8845 0.9110 0.9822 1.0185 0.9886 1.0076 1.1865 1.4920 1.9557 2.7457 2.5273 2.6483 2.7749 2.7609 2.2878 1.9980 1.5483 1.0890 0.7087 0.5840 0.4995 0.5317 0.5694 0.6711 0.6647 1.0243
0.2196 0.4454 0.6076 0.5564 0.6225 0.7020 0.8678 1.0138 0.9143 0.8012 0.6163 0.5157 0.7903 0.8710 0.6682 0.7893 1.0868 1.2690 1.5627 1.7258 1.5799 1.0840 0.5025 0.3205 0.3586 0.5228 0.7326 0.9098 1.1873 1.1466 1.2130 1.2074 0.9940 1.0123 1.0994 1.1953 1.3482 1.5579 1.9384 2.1688 2.2547 2.7001 2.6215 2.6315 3.0105 3.0441 3.0503 3.1287 3.2273 3.2850 3.3540 3.5578 3.4391 3.3308 3.3083 3.2245 3.1567 2.9421 2.7715 2.6327 2.6478 2.2326 2.3374 2.4200 2.1726 1.9846 1.8798 1.7995 1.6575 1.8107 1.8305 1.6853 1.6596 1.6027 1.5483 1.4557 1.4202 1.2199 1.1769 1.1081 0.9642 0.8905 0.8894 0.8601 0.7950 0.8269 0.7894 0.6941 0.7283 1.0210 0.9959 0.7328 0.5830 0.6012 0.5028 0.5107 0.5921 0.7440 1.0035 1.1289 1.2442 1.2698 1.2253 1.2800 1.2119 1.1963 1.0873 1.0524 1.0548 1.0456 1.6697 2.6241 2.1055 2.5777 2.2329 2.3371 2.1537 1.9265 1.6516 1.3042 0.8200 0.6152 0.5835 0.6407 0.6663 0.6484 0.7040 0.7213 0.9912
0.1387 0.4146 0.6711 0.5608 0.6394 0.7634 0.9105 1.0330 0.8683 0.6958 0.5436 0.5343 0.8161 0.8687 0.6379 0.6686 0.9289 1.0986 1.3006 1.6074 1.5614 1.1303 0.5574 0.2799 0.2821 0.5032 0.9031 0.9830 1.0700 1.2548 1.1482 1.0039 1.0366 1.1445 1.2699 1.4808 1.6644 1.8921 2.1388 2.3270 2.3401 2.6763 2.7623 2.6705 2.9153 3.0623 3.1358 3.2044 3.3244 3.4693 3.5715 3.8323 3.6445 3.3906 3.3283 3.1915 3.0951 2.6526 2.5659 2.4971 2.4161 2.2045 2.0346 2.2269 2.0579 1.9781 1.8627 1.8109 1.6469 1.6189 1.8218 1.6817 1.5214 1.4801 1.3463 1.2702 1.2604 1.1058 0.9910 0.9910 0.7629 0.7876 0.7943 0.8177 0.7813 0.7867 0.7039 0.6306 0.5823 0.9168 1.1007 0.8444 0.6614 0.7304 0.7758 0.8479 1.0325 1.1994 1.3576 1.5252 1.5824 1.5177 1.4724 1.3858 1.2131 1.0322 0.9370 1.0036 1.1084 1.1316 1.5617 1.7610 1.9435 1.7689 1.8293 1.8330 1.9801 1.9049 1.4515 1.0400 0.7060 0.6295 0.6834 0.7568 0.7618 0.7354 0.7469 0.8152 0.9055
0.1398 0.4157 0.6831 0.5496 0.6342 0.8112 0.9428 0.9561 0.7180 0.6320 0.5522 0.5502 0.7795 0.8360 0.6159 0.6326 0.8540 1.0008 1.1481 1.4194 1.4165 1.0498 0.5913 0.3137 0.3056 0.5097 0.9258 1.0787 0.9521 1.1139 0.9722 1.0378 1.1149 1.3031 1.4934 1.7301 1.8647 2.0482 2.1929 2.3453 2.3215 2.6056 2.5222 2.7284 2.8387 3.1047 3.1980 3.1854 3.4051 3.4794 3.6276 3.6961 3.5659 3.2035 3.1504 2.9342 2.7416 2.4153 2.3799 2.2666 2.3495 2.3351 2.0768 2.0402 2.0261 1.9493 1.8174 1.8005 1.7123 1.5841 1.6932 1.6217 1.4217 1.3612 1.1863 1.0968 1.0652 1.0270 0.8959 0.8464 0.7185 0.6879 0.7315 0.7790 0.7148 0.7441 0.7185 0.6121 0.5826 0.9321 1.0995 1.0395 1.0094 1.1133 1.1579 1.3291 1.4199 1.5310 1.6967 1.7703 1.6947 1.5513 1.3566 1.2120 1.0215 0.9250 0.9956 0.9727 0.8068 0.7048 0.8862 1.3480 1.2965 1.2641 1.6568 1.8114 2.1343 1.7942 1.2173 0.8278 0.7296 0.6952 0.7825 0.8600 0.8806 0.7924 0.7303 0.9699 1.2637
0.1792 0.4349 0.6704 0.5671 0.6396 0.8122 0.9152 0.8861 0.5950 0.4883 0.4822 0.4750 0.6818 0.8109 0.7193 0.7030 0.9194 1.0678 1.1984 1.4125 1.1942 0.8847 0.5871 0.3608 0.3122 0.5812 0.8956 1.1158 0.9064 0.8480 1.0496 1.2351 1.3481 1.5821 1.7708 1.9159 2.0662 2.1327 2.2237 2.2841 2.3350 2.4461 2.4029 2.7817 2.7415 3.1675 3.1330 3.1246 3.2741 3.3429 3.3675 3.2693 3.2426 2.8684 2.8183 2.5578 2.4970 2.2876 2.3177 2.1951 2.1856 2.2381 2.0705 1.9201 1.9699 1.9062 1.7553 1.7208 1.7302 1.5808 1.5733 1.5010 1.2922 1.2523 1.0071 1.0014 0.9116 0.8937 0.8051 0.7525 0.6910 0.6567 0.6761 0.7171 0.6692 0.6424 0.7021 0.7188 0.5494 1.0081 1.4855 1.3709 1.4376 1.4691 1.5480 1.6791 1.6433 1.7389 1.6620 1.7873 1.7642 1.4929 1.1247 0.8679 0.7338 0.6703 0.7349 0.8562 0.8952 0.7486 0.7773 1.0150 1.1716 1.2930 1.8790 2.1500 2.0546 1.5077 0.9802 0.7711 0.7654 0.8025 0.8994 0.9417 0.9548 0.9463 1.0966 1.1410 0.9115
0.2197 0.4596 0.6534 0.5556 0.6076 0.7869 0.9001 0.7814 0.5180 0.4013 0.3799 0.4117 0.6555 0.8222 0.8249 0.8801 1.0883 1.1778 1.1899 1.2456 1.0144 0.7619 0.6617 0.4974 0.4179 0.4281 0.8011 0.9600 0.8275 1.0137 1.2999 1.5037 1.7540 1.9039 2.0598 2.1552 2.2019 2.1821 2.2182 2.2373 2.4748 2.3581 2.7001 2.7789 2.7154 3.0474 2.9547 3.0165 2.9845 2.9935 3.0120 2.8246 2.8688 2.6059 2.4475 2.3375 2.3844 2.3139 2.1508 2.2236 2.0409 2.1284 1.9345 1.8306 1.9339 1.8195 1.6943 1.6162 1.6457 1.4953 1.4114 1.3985 1.1348 1.0762 0.9429 0.8807 0.8304 0.8286 0.7366 0.7159 0.6824 0.5994 0.5896 0.6340 0.6029 0.6155 0.7251 0.7873 0.5956 1.2682 2.1276 1.6041 1.8363 1.7679 1.7789 1.7917 1.6427 1.6867 1.4761 1.6178 1.4846 1.0245 0.7804 0.7153 0.7214 0.9008 0.8728 1.0065 1.0268 1.0761 1.0162 1.2511 1.5518 2.0515 2.3642 2.2501 1.7308 1.2592 0.8577 0.8089 0.8814 0.9080 0.9756 1.0822 1.0776 1.2681 0.9598 1.2191 1.7074
0.2321 0.4671 0.6456 0.5308 0.5943 0.7835 0.8355 0.7073 0.4508 0.3336 0.3065 0.4969 0.8848 1.0207 1.0190 1.0551 1.1364 1.1181 1.0548 1.0688 0.8556 0.6913 0.7446 0.5883 0.4882 0.3912 0.7875 0.7214 1.0906 1.4435 1.7005 1.8724 2.0251 2.0709 2.3144 2.3064 2.2637 2.2466 2.2500 2.3770 2.4588 2.3731 2.7674 2.7186 2.7247 2.8334 2.7437 2.8333 2.5853 2.5894 2.6737 2.4740 2.4974 2.3943 2.1977 2.2544 2.2489 2.2499 2.0873 2.1336 1.9852 2.1014 1.9346 1.7595 1.8028 1.7730 1.5980 1.5261 1.4833 1.3867 1.1716 1.2307 0.9961 0.9268 0.8571 0.7604 0.7472 0.7607 0.7192 0.6567 0.6247 0.5295 0.4937 0.5462 0.6391 0.7221 0.8368 0.9629 0.5682 1.7036 2.7963 1.8579 1.9745 1.6919 1.7485 1.5797 1.2112 1.0706 1.1527 1.4769 1.7392 1.4581 1.1012 0.9280 0.8617 1.0685 1.2352 1.2129 1.3120 1.4601 1.5726 1.5492 2.0741 2.4692 2.3566 2.0291 1.4213 1.0526 0.8313 0.8160 0.9914 1.0338 1.0415 1.1173 1.2337 0.9610 1.0128 0.9318 1.6880
0.3019 0.4972 0.6273 0.5687 0.6456 0.7804 0.7499 0.6333 0.4359 0.4358 0.6248 0.9150 1.2145 1.2793 1.1351 1.0547 1.0152 0.9441 0.8286 0.9486 0.9047 0.6864 0.7473 0.7737 0.5158 0.6891 0.7395 1.0321 1.5255 1.7900 1.9540 2.0070 2.1019 2.2161 2.3316 2.2921 2.2990 2.2846 2.3008 2.3004 2.2884 2.3674 2.5392 2.4419 2.5537 2.5389 2.4804 2.4245 2.2090 2.1872 2.2963 2.1904 2.1283 2.1272 1.9568 2.0899 2.0354 1.9898 1.9914 1.9998 1.8457 1.9347 1.8868 1.6689 1.5546 1.6055 1.4296 1.3201 1.2702 1.2149 1.1171 1.0203 0.9502 0.8804 0.7591 0.6582 0.7487 0.7234 0.6454 0.5917 0.5521 0.4462 0.4991 0.6952 0.8917 1.0666 1.1864 1.1788 0.4656 1.5598 3.1994 2.3955 1.5220 1.3817 1.3513 1.2061 1.2984 1.5521 1.6559 1.8021 1.9780 1.8306 1.5616 1.4328 1.4325 1.3515 1.5292 1.5993 1.7759 1.8727 2.0361 2.0801 2.2338 2.3765 2.2303 1.7577 1.0654 0.8743 0.7713 0.8696 1.0345 1.0714 1.2355 1.0971 0.9886 0.9935 0.9932 1.0837 1.2330
0.3747 0.5342 0.6417 0.5850 0.6438 0.7415 0.6705 0.5984 0.5875 0.8172 1.1265 1.4472 1.4651 1.3266 1.0127 0.8962 0.8248 0.7736 0.7247 0.9505 0.9760 0.6879 0.7305 0.7937 0.7594 0.8652 1.1509 1.5471 1.9128 2.0218 2.1140 2.1395 2.3203 2.3004 2.2486 2.2282 2.1919 2.1737 2.1940 2.1718 2.1630 2.1867 2.2850 2.0359 2.2609 2.1759 2.2250 2.0143 1.8684 1.9176 1.8817 1.9889 1.8283 1.8085 1.7391 1.8567 1.7729 1.8041 1.7479 1.7909 1.7110 1.6352 1.6532 1.5009 1.2841 1.3646 1.2876 1.1032 1.1116 1.0510 1.0422 0.9332 0.9326 0.8619 0.7914 0.6066 0.6969 0.7062 0.6125 0.5528 0.5544 0.6082 0.7501 1.0293 1.3590 1.5655 1.4768 1.0983 0.3131 0.9665 4.5774 2.6838 0.6663 0.9450 1.3287 1.7859 1.9383 2.1046 2.2506 2.4855 2.6027 2.5130 2.2032 2.0053 2.1468 1.8677 1.9279 2.0384 2.2786 2.3923 2.4654 2.6172 2.3501 2.3919 2.0518 1.4250 0.9173 0.8866 0.9251 0.9412 0.9685 1.2433 0.9991 1.2571 0.9439 1.0962 1.0920 1.1805 1.5269
0.4534 0.5837 0.6367 0.5759 0.6159 0.6442 0.6053 0.6079 0.7778 1.2117 1.5500 1.4815 1.3644 1.1070 0.7687 0.7168 0.6332 0.6492 0.7552 0.9740 1.0379 0.9463 0.7881 0.9031 1.0094 1.4719 1.8186 2.1323 2.2149 2.3210 2.3789 2.4505 2.4345 2.3442 2.2366 2.1433 2.0505 2.0573 2.0748 2.0416 2.0460 2.0301 2.0564 2.0372 2.0546 1.8853 2.0754 1.8057 1.7227 1.6791 1.6551 1.7777 1.6193 1.6591 1.6345 1.6077 1.5938 1.6294 1.5809 1.5833 1.5386 1.3651 1.4370 1.3200 1.1234 1.2506 1.1962 1.0292 1.0215 0.9181 0.8521 0.8415 0.8789 0.8367 0.7670 0.5780 0.5585 0.6756 0.6490 0.5947 0.7984 0.9880 1.2121 1.5169 1.8246 1.8331 1.3048 0.7369 0.2063 0.3230 3.5963 5.8632 0.9694 1.6498 2.0128 2.3277 2.4537 2.6307 2.6158 2.7646 3.0201 3.1981 2.9707 2.6711 2.5965 2.4288 2.3717 2.4667 2.5303 2.6420 2.6236 2.6213 2.3790 2.1243 1.7374 1.1408 0.9268 0.9882 1.0847 0.9993 1.1197 0.9144 0.9957 0.9119 1.2863 1.0934 1.2923 1.4427 1.5523
0.5226 0.6142 0.6202 0.5680 0.5598 0.5520 0.5364 0.6598 1.0018 1.4519 1.5756 1.3239 1.2010 0.8129 0.5753 0.5589 0.5029 0.7180 0.7539 1.1002 1.3522 0.9565 1.0339 1.2468 1.7381 2.1994 2.4589 2.4926 2.3775 2.4952 2.5023 2.5202 2.5032 2.3942 2.2031 2.0480 1.9855 1.9863 1.9194 1.9391 1.9831 1.9714 1.8976 2.0676 1.8814 1.7929 1.8989 1.6844 1.6815 1.4670 1.4621 1.5598 1.4149 1.4694 1.4084 1.3543 1.4470 1.3944 1.4499 1.3327 1.3607 1.1963 1.2614 1.2280 0.9902 1.1151 1.0533 0.9590 0.9256 0.8257 0.7164 0.6996 0.8117 0.7901 0.7153 0.5569 0.4383 0.5471 0.7888 0.9212 1.1290 1.4267 1.7004 1.8967 2.0211 1.5118 0.8879 0.4136 0.1313 0.4148 2.4954 5.3040 1.9911 2.4812 2.6564 2.6850 2.8188 2.8623 2.8463 2.8560 3.0593 3.8417 3.7894 3.3794 3.1001 3.0164 2.7480 2.6978 2.5087 2.6108 2.5418 2.3502 2.1986 1.7165 1.4076 1.2011 1.0832 0.9623 1.3254 1.1486 0.9368 0.9591 0.9573 1.0495 1.1587 1.3250 1.3163 1.5782 1.5077
0.6107 0.6726 0.6512 0.5882 0.5271 0.4918 0.5117 0.7951 1.3124 1.6240 1.4404 1.1394 0.9458 0.6094 0.4491 0.5679 0.6925 0.8689 1.1366 1.2982 1.1313 1.3403 1.4444 2.0299 2.4251 2.8540 2.8408 2.7246 2.4349 2.4402 2.5374 2.5898 2.5508 2.4275 2.2689 1.9983 1.9379 1.9931 1.8705 1.9123 1.9318 1.8558 1.7752 1.8892 1.8471 1.7041 1.6418 1.5785 1.5320 1.2768 1.3109 1.3499 1.2360 1.2161 1.1923 1.1310 1.2874 1.1855 1.2499 1.1648 1.1843 1.1440 1.0978 1.1217 0.9468 0.9178 0.9217 0.8492 0.8169 0.7296 0.6861 0.6347 0.6546 0.7177 0.6419 0.5473 0.4427 0.6598 0.9713 1.2366 1.5764 1.9026 2.0062 2.0413 1.6593 1.3140 0.6263 0.3992 0.0498 0.6525 1.1824 6.1786 2.2670 2.8678 2.9009 2.8247 2.9191 2.8630 2.8252 2.6925 3.0582 4.0593 4.3981 3.8305 3.4230 3.3175 2.9762 2.7173 2.4405 2.3776 2.1907 1.9723 1.8378 1.4853 1.3574 1.3518 1.1870 1.1980 0.9400 1.4443 1.0662 0.9370 1.0939 1.2642 1.2555 1.2263 1.1823 1.2055 1.1762
0.7457 0.7835 0.6762 0.5634 0.5281 0.5226 0.6202 1.0312 1.4858 1.6042 1.2978 0.8842 0.7119 0.5397 0.5998 0.9111 0.9405 0.9260 1.0854 1.3950 1.5379 1.8457 2.1788 2.6482 3.0672 3.1553 3.0224 2.7647 2.4698 2.2654 2.4467 2.5084 2.5332 2.4023 2.1822 1.9435 1.9331 1.9373 1.8725 1.8158 1.7555 1.7241 1.6393 1.7710 1.4667 1.5106 1.4399 1.3916 1.2324 1.1183 1.1218 1.0949 1.1136 1.0523 1.0096 0.9480 1.0671 1.0089 1.0377 1.0620 1.0013 1.0072 0.9657 0.9768 0.8122 0.7712 0.8142 0.7219 0.7202 0.6284 0.5760 0.5224 0.5681 0.6117 0.5823 0.5781 0.5773 0.7618 1.2246 1.6845 2.0260 2.2007 2.1327 1.8527 1.4992 1.0125 0.6673 0.6906 0.6314 1.0610 0.5402 3.5787 3.5160 3.1070 2.8139 2.7437 2.6906 2.5513 2.4585 2.3067 2.8184 3.6085 4.2231 3.8760 3.3340 3.2112 2.8998 2.5171 2.2148 1.9959 1.8378 1.7260 1.5756 1.3773 1.1363 1.3948 1.2483 1.1109 1.1328 0.8842 1.3080 1.2585 1.2867 1.2046 1.1874 1.0241 0.9028 0.7833 0.9330
0.9334 0.8984 0.6580 0.5535 0.5474 0.5656 0.7931 1.3066 1.5657 1.4129 0.9416 0.7327 0.8164 0.6743 0.6493 0.9587 1.1051 1.2279 1.1368 1.3561 1.9034 2.3597 2.6691 3.0728 3.2520 3.0608 3.0747 2.6100 2.4016 2.0623 2.2100 2.2986 2.4083 2.1901 2.1112 1.8932 1.7938 1.7666 1.7153 1.6446 1.6185 1.6460 1.5781 1.5422 1.3671 1.3913 1.1968 1.2043 0.9798 0.9360 0.8933 0.9099 0.9711 0.8761 0.8781 0.8160 0.8376 0.8892 0.9018 0.9506 0.9138 0.8777 0.8248 0.8677 0.7241 0.6309 0.7430 0.6592 0.6269 0.5849 0.5173 0.3876 0.4548 0.6685 0.6954 0.7547 0.8096 1.0530 1.5618 1.9179 2.2843 2.3758 2.2237 1.9868 1.3178 1.3727 1.1475 0.9926 1.3900 1.7003 1.7397 1.0346 3.4239 2.7206 2.5458 2.5020 2.2959 2.0812 1.9980 1.9686 2.2717 2.8612 3.4357 3.4385 2.9728 2.8517 2.5925 2.1670 1.8411 1.6488 1.7110 1.4980 1.2853 1.3956 1.0357 0.9243 1.6334 0.9918 1.1935 1.2580 1.2852 1.3245 1.2524 1.0559 0.8756 0.7836 0.7473 0.9539 1.0188
1.2571 1.0546 0.6312 0.5544 0.5792 0.6925 1.0387 1.4407 1.4121 1.0389 0.7038 0.7298 0.8810 0.8762 0.6533 1.0123 1.0502 1.0754 1.1848 1.5475 2.3026 2.7134 3.0547 3.1849 3.0583 2.8994 2.7514 2.3288 2.2622 1.9336 1.9570 2.1058 2.1554 2.1006 2.0138 1.7665 1.6563 1.5982 1.5676 1.5305 1.5205 1.5720 1.5167 1.3527 1.4321 1.2052 0.9803 1.0177 0.8234 0.8088 0.7305 0.7513 0.8508 0.7338 0.7652 0.7089 0.6728 0.7748 0.7507 0.8067 0.8104 0.8837 0.8112 0.8068 0.7239 0.5820 0.6162 0.6594 0.5360 0.5540 0.4841 0.4587 0.5452 0.8042 0.9421 0.9978 1.1155 1.4206 1.8249 2.1685 2.7595 3.1365 2.2264 1.8272 1.4934 1.5701 1.8524 1.9698 2.3286 2.5325 2.3344 0.9106 3.0920 2.3056 2.2491 1.9971 1.8290 1.7191 1.6464 1.7637 1.8756 2.2765 2.6419 2.6835 2.5198 2.3521 2.2254 1.9139 1.6009 1.2988 1.2784 1.2553 1.0022 0.7913 1.3590 1.0538 1.2571 1.7284 1.2284 1.5776 1.4509 1.1795 1.0314 0.8824 0.7516 0.8988 0.8816 1.0074 1.2735
1.3770 1.1092 0.6255 0.5690 0.6553 0.8092 1.1102 1.3304 1.0815 0.7573 0.6035 0.6608 0.8843 1.0505 0.9728 1.0078 0.8848 1.0400 1.4623 2.0380 2.7493 3.0404 3.2978 3.0150 2.8285 2.5078 2.4024 2.2936 2.1759 1.8595 1.7404 1.8925 1.9934 1.9376 1.8058 1.6939 1.5557 1.4963 1.4802 1.3819 1.3171 1.3520 1.2667 1.1273 1.1477 0.9885 0.8052 0.7785 0.7163 0.6986 0.6107 0.6267 0.6837 0.6432 0.6112 0.5609 0.5429 0.6132 0.6320 0.6448 0.7260 0.8248 0.7960 0.8208 0.7129 0.5795 0.5254 0.6162 0.5496 0.5137 0.6151 0.6660 0.8349 1.0779 1.2429 1.3362 1.4583 1.7681 2.2785 3.1601 3.4667 2.6285 2.2892 1.7652 1.8680 2.1803 2.6679 2.5900 2.5913 2.7445 2.6521 1.7329 2.4573 2.1749 1.7651 1.5655 1.4282 1.4874 1.4811 1.6399 1.6783 1.9442 2.2188 2.0915 2.1447 1.9228 1.8162 1.4763 1.3763 1.2305 0.8581 0.8307 1.2343 0.6262 0.5464 1.0532 1.0763 2.2712 1.6712 1.4720 1.1871 1.0242 0.9424 0.9850 0.9274 0.9973 1.1033 0.9760 0.9195
1.5318 1.2112 0.6571 0.6042 0.7254 0.9263 1.0607 0.9935 0.8136 0.6441 0.5394 0.5438 0.9320 1.0874 1.1781 0.9391 0.9688 1.3928 1.9654 2.5230 2.8485 2.8561 2.9609 2.6536 2.4955 2.1989 2.2679 2.3187 1.8959 1.7699 1.5879 1.7307 1.8036 1.7566 1.6921 1.6209 1.4287 1.3767 1.2784 1.1547 1.0734 1.0293 0.9849 0.8442 0.8547 0.6804 0.6344 0.5831 0.5885 0.5371 0.5094 0.5077 0.5204 0.5284 0.4708 0.4242 0.3959 0.4656 0.5109 0.5722 0.6232 0.7074 0.6880 0.7453 0.7570 0.5510 0.4692 0.5998 0.5886 0.6394 0.8350 1.0186 1.1479 1.3073 1.4508 1.5895 1.7829 2.4661 3.1241 3.0654 2.3979 2.8165 2.3424 2.2129 2.3183 2.5231 2.6982 2.6819 2.6221 2.6077 2.4574 2.0447 1.5321 1.8142 1.4442 1.2983 1.2505 1.3409 1.4252 1.5707 1.6391 1.6572 1.8755 1.9023 1.8122 1.4942 1.5462 1.3015 0.9548 1.0336 1.2498 0.7030 0.5828 0.8945 0.4955 0.5974 0.7061 1.4191 1.9525 1.1152 1.0305 0.9644 0.9739 1.1233 1.0548 0.9679 0.8106 0.8403 0.8899
1.7391 1.2744 0.5955 0.6650 0.8572 0.9327 0.8479 0.7099 0.6478 0.5078 0.4239 0.5639 0.8398 1.0434 1.1534 0.9814 1.4283 2.0161 2.5809 2.9189 2.8420 2.6109 2.5302 2.3162 2.1086 1.9617 1.9832 1.9395 1.7291 1.6768 1.4465 1.5440 1.6099 1.6544 1.5451 1.4714 1.2860 1.1351 1.0269 0.9148 0.8004 0.7592 0.7249 0.6231 0.6025 0.5774 0.5102 0.4512 0.4624 0.3546 0.4094 0.3821 0.3652 0.3939 0.3532 0.3257 0.2784 0.3753 0.4678 0.4424 0.4682 0.5938 0.6388 0.6338 0.7583 0.6067 0.4572 0.6532 0.8069 0.8790 1.0897 1.2691 1.3679 1.4085 1.5401 2.0852 2.5246 2.5089 2.3409 2.6784 2.7384 2.3453 2.4191 2.4822 2.5346 2.5077 2.5344 2.6093 2.3888 2.2464 2.1063 1.7602 1.3110 1.3771 1.3053 1.1390 1.1459 1.2695 1.3790 1.4664 1.5708 1.4920 1.4462 1.5669 1.4803 1.4183 1.0518 1.5101 1.1772 0.7305 0.7959 1.0586 0.5627 0.4871 0.4565 0.4957 0.4402 0.6613 1.0762 0.9872 0.8813 0.9294 0.8388 0.8493 0.8399 0.7984 0.7679 0.6214 0.7090
1.6302 1.2976 0.7083 0.7152 0.8605 0.9497 0.7854 0.5959 0.5112 0.4025 0.3753 0.6331 0.7465 1.1038 1.0593 1.3692 1.9510 2.4248 2.8855 2.8809 2.6323 2.2851 2.0461 1.9499 1.8291 1.7726 1.6726 1.5619 1.5664 1.3851 1.2298 1.2730 1.3746 1.4350 1.2968 1.2000 1.0625 0.8560 0.7793 0.6744 0.5626 0.5347 0.5048 0.4738 0.4236 0.5283 0.3922 0.3401 0.3545 0.2869 0.2866 0.3007 0.3380 0.3755 0.3211 0.3125 0.2837 0.2858 0.3830 0.4058 0.3672 0.4614 0.5813 0.5885 0.7074 0.6755 0.5461 0.7982 1.0265 1.1580 1.3862 1.4937 1.4848 1.4333 2.1263 2.6196 2.1076 1.9576 2.1468 2.2196 2.2521 2.3647 2.4985 2.4497 2.5457 2.3637 2.3287 2.3136 2.0295 1.8186 1.6102 1.4500 1.1172 0.9938 1.2476 1.0924 1.1039 1.1986 1.3365 1.3454 1.4463 1.3230 1.4119 1.3421 1.0682 1.6012 1.0787 0.6223 1.2051 1.0701 0.6398 0.6092 0.6295 0.7368 0.7051 0.5471 0.1903 0.4330 0.6783 0.7961 0.7470 0.6977 0.6712 0.6811 0.7646 0.7157 0.7224 0.4536 0.4994
1.2547 1.1516 0.7644 0.7080 0.8402 0.9522 0.8695 0.5805 0.4454 0.4293 0.5292 0.5068 0.8462 1.0466 1.3491 1.8372 2.2348 2.4928 2.5624 2.4559 2.2073 1.9294 1.8067 1.7986 1.7185 1.6542 1.4382 1.3364 1.2627 1.1456 1.0668 0.9862 1.0243 1.1013 0.9948 0.8899 0.7883 0.6479 0.5513 0.4678 0.3792 0.3607 0.3377 0.3275 0.3033 0.3391 0.2878 0.2414 0.2376 0.2712 0.2792 0.2634 0.3314 0.3383 0.3170 0.2959 0.2712 0.2722 0.3475 0.3986 0.3696 0.3986 0.5334 0.5171 0.6405 0.7774 0.7107 0.9978 1.3424 1.4827 1.5922 1.4853 1.4094 1.8333 1.9686 2.3309 2.2134 2.0129 1.8033 2.0039 2.1796 2.2289 2.3780 2.3981 2.3652 2.0949 1.9757 1.8220 1.5962 1.3337 1.2259 1.1816 0.9297 0.7431 1.1363 1.1345 1.0665 1.1003 1.2208 1.1597 1.3172 1.1832 0.9287 1.5519 1.1143 0.5687 1.3003 0.8559 0.7002 0.7733 0.7264 0.9039 1.4440 1.1243 0.8778 0.7849 1.8946 1.6392 1.3513 0.6719 0.6495 0.6554 0.6554 0.6757 0.6384 0.4976 0.8546 0.5618 0.4982
0.9762 0.9985 0.7834 0.7262 0.8322 0.9240 0.8751 0.6087 0.4764 0.6272 0.5028 0.8399 0.9268 1.4053 1.8106 2.3366 2.4435 2.3146 2.1838 2.1081 1.9954 1.8302 1.6897 1.6661 1.6038 1.4286 1.2419 1.1182 1.0693 0.9655 0.8730 0.7533 0.7654 0.7652 0.7299 0.6192 0.5609 0.4948 0.3771 0.3184 0.2655 0.2475 0.2301 0.2148 0.1787 0.1773 0.1899 0.1896 0.1839 0.2116 0.2519 0.2573 0.2618 0.2973 0.3072 0.2777 0.2380 0.2340 0.3165 0.4138 0.4073 0.3981 0.4971 0.5342 0.6571 0.8511 0.8385 1.2188 1.6363 1.6003 1.5065 1.5679 1.9788 1.5834 1.7610 1.9912 1.8186 1.8505 1.9406 2.0035 2.0599 2.1274 2.2552 2.1984 1.9939 1.7444 1.5751 1.3737 1.2412 1.0417 0.9338 1.0360 0.9152 0.7151 0.8728 1.1254 1.0922 1.0231 1.0938 0.9942 0.8552 1.3403 0.7591 0.5204 1.1819 0.7351 0.6522 0.7538 0.6080 0.7274 1.4662 2.2753 1.1916 1.4435 1.5513 1.7919 1.6548 1.2418 1.6911 1.5823 0.6767 0.7083 0.6367 0.4749 0.5139 0.2295 1.2433 2.6842 0.6852
0.8388 0.8990 0.7597 0.7045 0.8511 0.9700 0.8601 0.6443 0.7228 0.6440 0.8107 0.9574 1.3993 1.8297 2.3271 2.5224 2.3134 2.0258 1.8381 1.7833 1.7701 1.6450 1.4576 1.4727 1.3515 1.1413 0.9974 0.8662 0.8354 0.7510 0.7103 0.5976 0.5753 0.5011 0.4919 0.4358 0.3752 0.3157 0.2597 0.2220 0.1837 0.1536 0.1256 0.1246 0.1162 0.0793 0.1131 0.1158 0.1564 0.1880 0.2083 0.2394 0.2279 0.2508 0.2781 0.2877 0.2482 0.2505 0.3086 0.3823 0.4145 0.4407 0.5355 0.5817 0.7480 1.0119 1.0868 1.3767 1.6854 1.6570 1.7888 1.8465 1.8154 1.7818 1.5294 1.5936 1.7970 1.8789 2.0115 1.9921 1.9280 1.9692 1.9784 1.8411 1.5223 1.4157 1.2129 1.0790 1.0464 0.9698 0.8663 0.9482 0.9204 0.7384 0.7886 0.9083 0.9897 0.9468 0.9416 1.1736 0.7795 0.6255 1.0587 0.6942 0.6410 0.7705 0.6566 0.6405 1.1194 1.9191 1.7674 1.8607 2.0387 1.7539 1.2475 1.1078 0.3170 0.1671 0.7679 1.6140 0.8005 0.6116 0.5241 0.5475 0.5550 1.0152 0.5948 0.3207 1.4026
0.7137 0.7972 0.7489 0.7483 0.8841 1.0124 0.9599 0.7410 0.7883 0.9042 1.0131 1.4509 1.9271 2.3080 2.6392 2.4925 2.1231 1.7420 1.5455 1.5091 1.5815 1.4401 1.2903 1.2151 1.0956 0.8959 0.8090 0.7079 0.6576 0.6334 0.5652 0.4720 0.3917 0.3270 0.3278 0.3030 0.2341 0.1973 0.1509 0.1198 0.1025 0.0792 0.0690 0.0566 0.0696 0.0433 0.0687 0.0587 0.0972 0.1418 0.1715 0.2044 0.2187 0.2396 0.2702 0.2911 0.2693 0.2541 0.3115 0.3909 0.4271 0.4605 0.5894 0.7214 0.9202 1.1414 1.2239 1.3875 1.6298 1.9764 1.8305 1.8991 1.8225 1.5374 1.4573 1.5963 1.7949 1.8097 1.8600 1.7720 1.6882 1.5673 1.5852 1.4430 1.1753 1.0772 0.9174 0.9200 0.8661 0.8971 0.8774 0.8876 0.9277 0.7983 0.7834 0.7767 0.9270 1.0299 0.8118 0.8111 1.0145 0.7796 0.8211 0.9294 0.8010 0.6592 0.9061 1.5422 1.7266 1.3386 1.7405 1.8531 1.2935 0.8543 0.6718 0.4730 0.2654 0.0598 0.4331 0.9896 0.9234 0.6063 0.6294 0.6344 0.7872 0.8830 0.9308 1.2960 0.7324
0.6223 0.7535 0.7616 0.8170 0.9883 1.1168 1.0354 0.9674 0.8378 0.9512 1.5596 2.0551 2.3244 2.6800 2.6330 2.2786 1.8259 1.4904 1.3145 1.3628 1.4072 1.2769 1.1538 0.9603 0.8883 0.7334 0.7091 0.5975 0.5358 0.5192 0.4300 0.3680 0.2963 0.2506 0.2338 0.2034 0.1356 0.1347 0.0870 0.0633 0.0532 0.0393 0.0466 0.0600 0.0591 0.0228 0.0294 0.0602 0.0335 0.0982 0.1555 0.1866 0.2050 0.2316 0.2567 0.2873 0.2855 0.2702 0.3175 0.3972 0.4316 0.4818 0.6233 0.7595 0.9473 1.2268 1.3397 1.3494 1.7818 2.1681 1.9413 1.8332 1.5367 1.4932 1.4611 1.5863 1.6668 1.6533 1.5315 1.4452 1.3261 1.2370 1.1743 1.0840 0.9026 0.8642 0.8138 0.8239 0.8238 0.7964 0.8102 0.8008 0.8539 0.7687 0.9274 0.8984 0.7226 0.8285 0.9028 0.8181 0.8458 0.9220 0.8647 0.8001 0.8785 1.1071 1.4596 1.4038 1.8125 1.6835 1.2670 0.7865 0.5973 0.5117 0.4030 0.2641 0.1502 0.1142 0.6223 0.9609 0.6731 0.8001 0.7598 0.7062 0.6654 0.7741 0.8594 1.1555 1.5244
0.5668 0.7531 0.7997 0.8868 1.1033 1.2346 1.1426 0.6836 0.7725 1.4752 2.0933 2.3475 2.5457 2.6445 2.3681 1.9328 1.5213 1.2821 1.1693 1.2187 1.2285 1.1645 0.9485 0.8092 0.7462 0.6654 0.5878 0.4826 0.4348 0.3926 0.3264 0.2759 0.2401 0.1922 0.1704 0.1270 0.1000 0.0404 0.0545 0.0418 0.0272 0.0366 0.0463 0.0405 0.0614 0.0524 0.0472 0.0315 0.0342 0.0717 0.1363 0.1814 0.2048 0.2265 0.2376 0.2616 0.2869 0.2878 0.3195 0.3825 0.4293 0.4691 0.5982 0.7687 0.9424 1.1723 1.3287 1.4931 1.7837 2.0358 2.1329 1.4673 1.4414 1.4725 1.4087 1.4076 1.4689 1.3910 1.2393 1.1234 1.0234 0.9842 0.8871 0.9099 0.8237 0.7222 0.7379 0.6942 0.7041 0.7176 0.7023 0.6895 0.9338 0.7250 0.6147 0.8246 0.8018 0.6866 0.7686 0.9051 0.8996 0.8531 0.8173 0.7920 1.0835 1.4225 1.2777 1.4524 1.3114 0.9339 0.6929 0.5468 0.4097 0.3905 0.4100 0.2900 0.3019 0.5807 0.8722 0.5791 0.7657 0.8895 0.6645 0.6525 1.7083 2.2071 2.7663 2.9040 2.1447
0.4854 0.7224 0.8604 0.8928 1.1336 1.3884 1.4336 0.6229 1.3977 1.9123 2.3397 2.4241 2.4037 2.3611 1.9482 1.5589 1.3674 1.1235 1.0342 1.0402 1.0424 0.9645 0.8055 0.7032 0.6101 0.5608 0.4502 0.3889 0.3484 0.2912 0.2419 0.1972 0.1726 0.1379 0.1256 0.1024 0.0920 0.0465 0.0115 0.0338 0.0292 0.0346 0.0470 0.0598 0.0597 0.0458 0.0520 0.0515 0.0411 0.0592 0.1220 0.1711 0.1980 0.2166 0.2344 0.2520 0.2659 0.2786 0.3066 0.3544 0.4189 0.4822 0.6025 0.8146 0.9710 1.0483 1.4065 1.7459 1.6395 1.9409 1.4593 1.3119 1.2654 1.3247 1.2739 1.1637 1.2558 1.1045 1.0108 0.9178 0.8378 0.8559 0.8102 0.7455 0.6868 0.6067 0.5482 0.5800 0.5364 0.5487 0.7511 0.6089 0.5505 0.8566 0.6696 0.5648 0.6324 0.6829 0.7275 0.7905 0.8476 0.8132 0.7871 0.8887 1.1117 1.1967 1.2542 0.9137 0.7342 0.6936 0.5999 0.5518 0.5141 0.4381 0.4068 0.4581 0.6086 0.8063 0.7966 0.8189 1.0201 1.6498 2.2667 3.3033 4.0207 2.8754 2.4101 1.0670 0.9445
0.4720 0.6815 0.8494 0.9295 1.1818 1.5685 1.8740 1.5679 1.8804 2.0466 2.3278 2.1505 2.0566 1.8923 1.5149 1.3448 1.1604 0.9346 0.8592 0.8585 0.8399 0.7817 0.6785 0.5390 0.4652 0.4286 0.3263 0.2802 0.2475 0.2071 0.1657 0.1448 0.1255 0.1041 0.0938 0.1068 0.1061 0.1029 0.0287 0.0147 0.0418 0.0491 0.0630 0.0720 0.0646 0.0686 0.0761 0.0594 0.0563 0.0566 0.0834 0.1592 0.1910 0.2105 0.2256 0.2439 0.2648 0.2832 0.3064 0.3447 0.4172 0.5029 0.6276 0.8632 0.9923 1.1032 1.6053 1.6703 1.5977 1.3758 1.1939 1.1622 1.1166 1.1504 1.1054 0.9852 1.0467 0.9692 0.9085 0.8520 0.7850 0.7531 0.6241 0.6076 0.5569 0.5198 0.4627 0.4367 0.6321 0.5200 0.4614 0.6392 0.5175 0.5598 0.6631 0.6495 0.5747 0.5874 0.6207 0.6424 0.6761 0.7182 0.8464 0.8931 0.8709 0.8244 0.5925 0.4854 0.5410 0.5962 0.6382 0.6337 0.6599 0.6820 0.8363 0.9470 1.0208 0.9336 1.0376 1.9909 2.6789 3.7699 3.2893 2.8644 1.1388 0.9568 1.0942 1.0607 1.0331
0.4693 0.6570 0.8067 0.9299 1.2376 1.6806 1.8624 2.2967 2.1106 2.0640 2.1048 1.8082 1.6706 1.4473 1.1547 1.0196 0.8856 0.7649 0.6756 0.6842 0.6634 0.6158 0.5212 0.4005 0.3582 0.2960 0.2528 0.2196 0.1925 0.1612 0.1333 0.0969 0.0916 0.0806 0.1012 0.1179 0.1146 0.1177 0.0785 0.0375 0.0588 0.0673 0.0797 0.0837 0.0894 0.0917 0.0695 0.0588 0.0472 0.0299 0.0698 0.1472 0.1904 0.2135 0.2318 0.2476 0.2714 0.2923 0.3116 0.3463 0.4422 0.5655 0.6895 0.9084 1.2204 1.2914 1.3514 1.5670 1.3795 1.1128 1.0580 1.0363 0.9878 0.9693 0.9620 0.8513 0.9050 0.9944 0.9078 0.8200 0.6714 0.5840 0.5814 0.5459 0.5225 0.5508 0.6032 0.4593 0.4329 0.5514 0.4576 0.4591 0.5009 0.5076 0.5686 0.6233 0.5275 0.5007 0.5128 0.5659 0.6235 0.6975 0.7348 0.7608 0.7328 0.5969 0.4008 0.3549 0.5085 0.6565 0.7882 1.0537 1.2320 1.1589 1.0467 1.2714 2.3476 2.1853 3.0300 3.0801 2.4167 1.6641 1.6647 1.7102 1.3927 0.9940 0.8218 0.7759 0.9220
0.4493 0.6005 0.7747 0.9350 1.2897 1.7724 1.8419 2.4945 2.1748 1.9442 1.8214 1.3940 1.2073 1.0530 0.7734 0.7053 0.7126 0.6333 0.5034 0.5082 0.4958 0.4407 0.3754 0.2997 0.2570 0.2289 0.2135 0.1914 0.1651 0.1350 0.1030 0.0682 0.0549 0.0480 0.0627 0.1138 0.1509 0.1186 0.0922 0.0794 0.0793 0.0854 0.0922 0.0921 0.0973 0.0796 0.0590 0.0463 0.0318 0.0332 0.0952 0.1520 0.1999 0.2227 0.2406 0.2525 0.2651 0.2906 0.3204 0.3434 0.4745 0.6649 0.7665 1.0618 1.3865 1.2240 1.2539 1.3203 1.0836 0.9544 0.9449 0.9298 0.8671 0.8770 0.8977 0.9052 0.8341 0.8802 0.8808 0.7376 0.6505 0.5543 0.4924 0.6348 0.5499 0.4862 0.4787 0.5414 0.3520 0.3742 0.4561 0.4589 0.4636 0.4575 0.5319 0.6110 0.5471 0.4533 0.4197 0.4874 0.5965 0.6419 0.6225 0.6254 0.6081 0.5652 0.5024 0.5406 0.7355 1.0328 1.3811 1.5385 1.6127 2.1050 2.1448 3.3534 3.1305 2.3810 2.1210 1.2046 1.2976 2.2847 2.3417 1.1879 0.7227 1.0720 1.2867 1.6797 1.8219
0.4612 0.5728 0.7065 0.9247 1.3279 1.8181 2.1126 2.4894 2.2800 1.8601 1.5433 1.1077 0.8587 0.6926 0.5677 0.5829 0.5628 0.4982 0.3450 0.3424 0.3331 0.2806 0.2465 0.2160 0.1843 0.1724 0.1450 0.1329 0.1163 0.0888 0.0613 0.0341 0.0087 0.0226 0.0175 0.0599 0.1368 0.1513 0.1162 0.1041 0.1035 0.1040 0.0922 0.0863 0.0796 0.0687 0.0649 0.0503 0.0424 0.0703 0.1194 0.1627 0.2015 0.2260 0.2525 0.2602 0.2865 0.3180 0.3507 0.3691 0.5013 0.8131 1.0316 1.0281 1.1393 1.0614 1.0404 0.9514 0.9221 0.8036 0.8436 0.8406 0.8809 0.8873 0.8474 0.8194 0.7389 0.7390 0.8647 0.6525 0.4860 0.8107 0.5086 0.4452 0.4642 0.4315 0.3380 0.4054 0.4006 0.3529 0.3580 0.4009 0.4426 0.4485 0.4959 0.5711 0.5313 0.4806 0.4104 0.4020 0.4780 0.5279 0.4895 0.4884 0.5865 0.5960 0.5646 0.6922 1.0398 1.3720 1.8604 2.7776 3.5235 3.0712 2.4511 2.0401 1.1144 1.3152 1.7774 1.7702 1.2404 1.5902 1.8287 1.7923 1.4196 1.6318 2.0355 2.6824 3.7628
0.4053 0.5225 0.6649 0.9368 1.3156 1.7178 2.2053 2.2246 2.3259 1.8282 1.3910 0.8687 0.6478 0.5457 0.4582 0.4638 0.4497 0.3463 0.2800 0.2400 0.2036 0.1643 0.1458 0.1330 0.1115 0.0959 0.0721 0.0692 0.0620 0.0491 0.0201 0.0362 0.0179 0.0210 0.0054 0.0377 0.1097 0.1635 0.1479 0.1146 0.1112 0.1034 0.0936 0.0943 0.0893 0.0795 0.0655 0.0422 0.0334 0.0868 0.1698 0.2110 0.2292 0.2569 0.2637 0.2758 0.3092 0.3850 0.3789 0.3867 0.6762 1.0632 0.9880 0.8652 1.0380 0.9440 0.8002 0.7873 0.7704 0.7678 0.7802 0.7921 0.8262 0.7369 0.7856 0.6811 0.7349 0.6411 0.4333 0.8699 0.5284 0.4320 0.6141 0.4129 0.3128 0.2813 0.2981 0.2699 0.3809 0.3663 0.3950 0.4556 0.4656 0.4157 0.4097 0.4679 0.4410 0.4253 0.3715 0.3304 0.3799 0.4297 0.4494 0.4645 0.4888 0.5966 0.6486 0.7915 0.8996 2.5239 4.7697 3.7217 2.2613 1.4874 1.6259 2.1094 2.0884 1.0409 0.8587 1.4194 1.4744 1.5892 2.1499 2.2919 2.6302 2.8010 3.4153 3.8564 4.1100
0.4361 0.5198 0.6476 0.8873 1.1840 1.5147 2.0403 1.9015 2.2666 1.8592 1.3403 0.7599 0.5516 0.4770 0.3945 0.3641 0.3443 0.2978 0.2368 0.1705 0.1380 0.0904 0.0794 0.0720 0.0579 0.0466 0.0395 0.0441 0.0550 0.0526 0.0448 0.0326 0.0115 0.0106 0.0007 0.0251 0.0940 0.1409 0.1540 0.1319 0.1158 0.1085 0.0991 0.1062 0.1027 0.0739 0.0532 0.0386 0.0646 0.1700 0.2435 0.2711 0.2723 0.2665 0.2762 0.2969 0.4053 0.4225 0.4816 0.4703 0.4582 0.9997 1.0653 0.8437 0.7774 0.8135 0.7574 0.7165 0.7696 0.7576 0.6665 0.6474 0.7025 0.7475 0.8145 0.6457 0.4846 0.6630 0.3743 0.4159 0.5464 0.2651 0.3158 0.3787 0.3881 0.2692 0.2872 0.2669 0.3448 0.4389 0.4923 0.4906 0.4518 0.3554 0.2660 0.3425 0.3356 0.3149 0.3605 0.3305 0.3473 0.4262 0.4511 0.4455 0.4907 0.5570 0.5717 0.5995 2.8048 5.1321 3.3344 2.4769 1.8893 1.9571 1.9145 1.1289 1.4131 1.4672 1.4291 1.4578 1.7200 1.8658 2.4122 2.7189 2.9966 2.8271 2.7843 2.9997 2.0953
0.4366 0.5418 0.6630 0.8616 1.0579 1.2672 1.6740 2.1354 1.9393 1.9306 1.3258 0.7340 0.5630 0.4509 0.3567 0.3299 0.2811 0.2161 0.1711 0.1533 0.1004 0.0607 0.0479 0.0524 0.0447 0.0320 0.0373 0.0254 0.0399 0.0617 0.0725 0.0487 0.0182 0.0125 0.0137 0.0149 0.0727 0.1327 0.1481 0.1455 0.1284 0.1150 0.1131 0.0979 0.0923 0.0899 0.0633 0.0914 0.1834 0.2479 0.2700 0.2852 0.2473 0.2392 0.3072 0.2608 0.3239 0.6228 0.7642 0.5424 0.4407 0.6421 0.7792 0.6982 0.7258 0.7482 0.7224 0.6745 0.6693 0.6670 0.6013 0.8250 0.5915 0.5738 0.4284 0.5792 0.3117 0.3660 0.4045 0.2103 0.3100 0.3298 0.2829 0.2764 0.4035 0.3170 0.3367 0.4405 0.5060 0.6090 0.6031 0.4849 0.5187 0.4298 0.4800 0.5504 0.5015 0.4966 0.4828 0.4345 0.4173 0.4571 0.3980 0.3275 0.4122 0.5349 1.1110 3.1432 5.9053 3.0661 3.0372 2.4411 1.6900 1.1223 1.4769 1.4341 1.7311 1.7997 1.9160 1.7948 1.9299 1.9284 2.0059 2.2297 2.0429 1.9538 1.7432 1.7514 1.4473
0.4325 0.5369 0.6603 0.8180 0.9654 1.1130 1.4723 2.1061 1.8003 2.0232 1.4181 0.7949 0.5615 0.4429 0.3446 0.2852 0.2189 0.1767 0.1418 0.1120 0.0707 0.0503 0.0360 0.0406 0.0422 0.0437 0.0308 0.0282 0.0161 0.0391 0.0747 0.0617 0.0261 0.0065 0.0153 0.0231 0.0778 0.1171 0.1497 0.1598 0.1479 0.1340 0.1140 0.0922 0.1070 0.1046 0.1188 0.1856 0.2241 0.2540 0.2417 0.1951 0.1552 0.2548 0.2722 0.1653 0.3083 0.5807 0.7032 0.6127 0.4428 0.4984 0.6435 0.7002 0.7171 0.7402 0.6453 0.6210 0.6231 0.8253 0.6519 0.4533 0.4897 0.2665 0.1509 0.1671 0.2514 0.1505 0.2529 0.2552 0.2996 0.3022 0.3279 0.3077 0.3767 0.5107 0.5798 0.6118 0.7137 0.8044 0.7294 0.7305 0.8079 0.8634 0.9547 0.8914 0.8877 0.8500 0.7394 0.7389 0.8155 0.7060 0.2115 0.6521 2.1798 2.8595 5.5325 4.8445 2.7729 3.0817 3.4394 1.0992 1.4003 1.4083 1.8708 2.0717 2.0958 2.1009 2.0938 2.0592 1.9844 1.9246 1.7632 1.8453 1.6003 1.5029 1.5111 1.4361 1.4531
0.4397 0.5261 0.6347 0.7635 0.8855 0.9898 1.2132 1.7422 1.3663 1.9443 1.4484 0.8268 0.5551 0.4278 0.3095 0.2400 0.1998 0.1605 0.1099 0.0751 0.0514 0.0455 0.0311 0.0248 0.0403 0.0416 0.0522 0.0294 0.0130 0.0300 0.0674 0.0731 0.0344 0.0097 0.0102 0.0652 0.1030 0.1215 0.1320 0.1542 0.1522 0.1496 0.1324 0.1295 0.1421 0.1445 0.1755 0.1833 0.2178 0.1697 0.1201 0.1456 0.1441 0.1334 0.3565 0.4191 0.2720 0.3613 0.4167 0.4670 0.4298 0.4813 0.5853 0.6972 0.6522 0.7100 0.6162 0.7430 0.6447 0.4348 0.5396 0.2022 0.3063 0.2561 0.2130 0.1480 0.1517 0.1648 0.2256 0.2590 0.2840 0.3680 0.3700 0.3710 0.5414 0.7073 0.7891 0.8521 0.9795 1.0086 1.0059 1.1406 1.1756 1.2353 1.2205 1.2078 1.1122 1.1146 1.2064 1.4005 1.5847 1.6484 2.1201 4.3878 4.6576 4.4146 2.9369 2.7709 3.3858 2.5763 1.4872 1.5288 1.9389 1.9235 2.1246 2.0364 1.9727 2.0776 2.0891 2.1397 2.1368 2.1516 1.8598 1.8525 1.6848 1.5741 1.5372 1.5568 1.4679
0.4463 0.5171 0.6040 0.7016 0.8003 0.9073 1.0671 1.4984 1.5118 1.6510 1.3715 0.7741 0.5098 0.3944 0.2849 0.2207 0.1879 0.1427 0.0999 0.0547 0.0472 0.0418 0.0281 0.0260 0.0251 0.0446 0.0533 0.0372 0.0120 0.0232 0.0622 0.0806 0.0541 0.0078 0.0158 0.0706 0.1102 0.1503 0.1478 0.1480 0.1644 0.1734 0.1691 0.1659 0.1646 0.1700 0.1450 0.1483 0.1563 0.1465 0.1488 0.1933 0.1984 0.1684 0.1971 0.3372 0.3137 0.3171 0.3521 0.4137 0.4996 0.4893 0.5383 0.5998 0.6093 0.6443 0.6528 0.5123 0.4642 0.2084 0.3366 0.3101 0.2601 0.2361 0.2080 0.2534 0.1978 0.2011 0.2175 0.2877 0.3587 0.3745 0.4533 0.5431 0.6874 0.9068 1.0958 1.2269 1.2749 1.2630 1.3441 1.3897 1.3237 1.3420 1.2537 1.1428 1.1010 1.3381 1.5800 1.8954 2.0833 2.5371 3.7814 3.0988 1.8264 2.1648 3.2415 2.6803 1.1774 1.7422 2.0372 2.0754 2.0189 1.9059 1.9327 1.7399 1.8005 1.9327 2.0010 2.1179 2.1106 2.1400 1.9190 1.6759 1.6468 1.3729 1.3432 1.3489 1.2099
0.4378 0.5063 0.5695 0.6604 0.7290 0.8154 0.9499 1.2097 1.5282 1.6093 1.3306 0.7411 0.5051 0.3550 0.2708 0.2160 0.1706 0.1214 0.0899 0.0644 0.0481 0.0387 0.0265 0.0184 0.0165 0.0445 0.0596 0.0411 0.0138 0.0126 0.0517 0.0901 0.0544 0.0219 0.0698 0.0898 0.1352 0.1523 0.1566 0.1864 0.2209 0.2063 0.1981 0.1832 0.1597 0.1596 0.1102 0.1653 0.2440 0.1315 0.1519 0.1467 0.1905 0.1502 0.1994 0.2242 0.2738 0.3264 0.3891 0.4211 0.4650 0.4558 0.4835 0.5318 0.5030 0.4783 0.3857 0.2241 0.3379 0.3034 0.3084 0.2867 0.2572 0.2307 0.1944 0.2053 0.2733 0.2206 0.2687 0.3110 0.3898 0.4524 0.6005 0.7705 0.9510 1.1657 1.4684 1.5457 1.3995 1.4089 1.3383 1.2867 1.3364 1.3185 1.2322 1.0848 1.1431 1.3190 1.5502 1.8262 1.7163 1.7677 2.0577 2.9003 2.6901 1.8309 1.1549 2.0007 1.9786 2.0576 2.0345 1.9958 1.9114 1.8593 1.7451 1.7214 1.7600 1.7178 1.7375 1.7867 1.6777 1.7684 1.6687 1.3351 1.2917 0.9868 1.0358 1.0949 0.9859
0.3961 0.4814 0.5294 0.6053 0.6705 0.7395 0.8610 1.0289 1.4076 1.2270 1.1879 0.7492 0.5055 0.3729 0.2600 0.1795 0.1468 0.1193 0.0866 0.0580 0.0521 0.0320 0.0070 0.0126 0.0197 0.0452 0.0574 0.0558 0.0259 0.0067 0.0472 0.0963 0.0757 0.0581 0.0843 0.1205 0.1447 0.1548 0.1794 0.2662 0.2591 0.1730 0.1760 0.1483 0.2056 0.1879 0.1602 0.1757 0.2315 0.1908 0.1776 0.1809 0.1818 0.1867 0.2160 0.2525 0.2916 0.3586 0.3903 0.4066 0.4559 0.4905 0.4268 0.4616 0.4569 0.3871 0.4124 0.2063 0.1746 0.2609 0.2630 0.3194 0.2519 0.2467 0.2217 0.2026 0.2815 0.2888 0.2759 0.3688 0.4455 0.5531 0.7406 1.0388 1.1644 1.4499 1.7127 1.5657 1.3341 1.2170 1.0963 1.3602 1.6187 1.5095 1.2449 1.3550 1.3470 1.2081 1.7257 1.7825 1.5393 1.7417 1.9396 1.8079 1.7607 2.0341 1.7321 1.8150 1.8433 1.8716 1.9658 1.9285 2.0230 1.9451 1.7351 1.8207 1.5851 1.4639 1.4166 1.3232 1.2483 1.3358 1.2609 1.1004 0.9752 0.8983 0.7991 0.8977 0.9845
0.3321 0.4256 0.4844 0.5500 0.5875 0.6188 0.7655 0.8766 1.1604 1.1116 0.8407 0.7697 0.5604 0.4028 0.2565 0.1752 0.1346 0.1122 0.0852 0.0687 0.0505 0.0193 0.0040 0.0103 0.0272 0.0515 0.0616 0.0611 0.0297 0.0063 0.0443 0.0870 0.1098 0.1189 0.1008 0.1202 0.1502 0.1599 0.1824 0.2368 0.2642 0.1880 0.1570 0.1571 0.0977 0.1723 0.1595 0.1878 0.2367 0.2330 0.2357 0.2419 0.2470 0.2830 0.2923 0.3091 0.3447 0.3939 0.4569 0.4964 0.4280 0.4469 0.4079 0.3601 0.3920 0.3653 0.5092 0.6379 0.1767 0.0686 0.0723 0.1470 0.3474 0.2365 0.2430 0.2527 0.2549 0.3006 0.3825 0.3869 0.5467 0.7244 0.9289 1.2145 1.3202 1.6325 1.6756 1.3692 1.0259 0.9055 1.1276 1.3693 1.1565 1.3443 1.6904 1.7082 1.1160 1.2985 1.5625 1.2503 0.9730 0.8547 1.4574 1.8533 1.7512 1.7203 1.7229 1.7671 1.9356 1.9906 2.1185 2.1407 2.0295 1.9249 1.7411 1.6109 1.2795 1.1520 1.0388 0.9942 1.0383 1.0229 1.0632 0.9480 0.8070 0.8068 0.6500 0.7882 0.9627
0.2928 0.3665 0.4257 0.4904 0.5289 0.5175 0.6382 0.7466 0.8585 1.0619 0.6190 0.7493 0.6510 0.4549 0.2701 0.1844 0.1326 0.1142 0.1010 0.0696 0.0429 0.0218 0.0068 0.0162 0.0348 0.0559 0.0646 0.0677 0.0391 0.0008 0.0314 0.1025 0.1851 0.1541 0.1251 0.1296 0.1409 0.1273 0.1464 0.2015 0.2582 0.2641 0.1747 0.1599 0.1503 0.1376 0.1664 0.2108 0.2208 0.2614 0.2972 0.3314 0.3171 0.3068 0.3474 0.3767 0.5449 0.5532 0.4460 0.4929 0.4292 0.3519 0.3779 0.2817 0.2779 0.3017 0.2682 0.8433 0.8278 0.0426 0.0122 0.0198 0.1112 0.2431 0.2621 0.2717 0.3074 0.4090 0.4381 0.4652 0.7062 0.8620 1.0904 1.3360 1.5552 1.5598 1.3439 1.0531 0.8730 0.8335 0.7136 1.1888 1.2600 1.2262 1.3202 1.4164 1.6044 1.9060 1.4829 1.2561 0.9585 1.0238 1.0537 1.2613 1.4954 1.7356 1.9979 2.0596 2.2270 2.1865 2.1552 2.1057 1.7989 1.6449 1.4828 1.2391 1.0112 0.8540 0.8050 0.8068 0.8534 0.8232 0.8923 0.7687 0.7306 0.6650 0.6038 0.6555 0.8280
0.2861 0.3219 0.3703 0.4136 0.4573 0.4689 0.5333 0.6558 0.7288 0.7809 0.6076 0.7030 0.7602 0.5131 0.2990 0.2010 0.1364 0.1173 0.1021 0.0647 0.0305 0.0282 0.0235 0.0217 0.0384 0.0564 0.0727 0.0691 0.0414 0.0324 0.0748 0.0916 0.1537 0.1847 0.1296 0.1204 0.1168 0.1088 0.0865 0.1535 0.2655 0.2609 0.2023 0.2003 0.2070 0.2130 0.2376 0.2879 0.2794 0.3406 0.3730 0.3225 0.4026 0.4487 0.6508 0.6818 0.5288 0.5764 0.4665 0.3688 0.4101 0.3092 0.3050 0.2804 0.2542 0.2955 0.2398 0.3405 0.9930 0.4962 0.0430 0.0077 0.0237 0.1187 0.2941 0.3687 0.3521 0.4579 0.5473 0.6962 0.8613 1.0801 1.2816 1.3652 1.5264 1.2959 1.0928 1.0138 0.7720 0.8526 0.9114 0.9450 1.1418 1.2599 1.5172 1.5539 1.5288 1.4106 1.2126 0.9921 1.0446 1.0274 0.9131 1.1025 1.4533 1.8432 2.1082 2.1291 2.1495 2.0815 1.8247 1.6271 1.4970 1.2667 1.0468 0.9410 0.9458 0.7315 0.7086 0.7480 0.7473 0.7162 0.7650 0.6736 0.6375 0.5838 0.5818 0.5822 0.7708
0.2929 0.3000 0.3207 0.3503 0.3812 0.4190 0.4349 0.5280 0.6680 0.6678 0.6654 0.3737 0.6533 0.5873 0.3503 0.2161 0.1516 0.1204 0.0987 0.0616 0.0205 0.0245 0.0345 0.0401 0.0517 0.0613 0.0751 0.0748 0.0301 0.0788 0.0705 0.1077 0.1415 0.1800 0.1517 0.1384 0.1634 0.1494 0.1676 0.1582 0.1729 0.2269 0.2434 0.2766 0.2801 0.2907 0.3042 0.3196 0.3870 0.4499 0.4723 0.5636 0.7659 0.7725 0.6727 0.6355 0.4396 0.3923 0.4568 0.3346 0.3517 0.3383 0.3033 0.2893 0.2547 0.2626 0.2527 0.2292 1.0288 0.7538 0.0413 0.0037 0.0039 0.0419 0.0502 1.3551 0.5748 0.5132 0.7361 1.0115 1.0975 1.2798 1.3483 1.3594 1.4160 1.2050 0.9894 0.8936 0.8630 0.9662 1.1123 1.2101 1.3072 1.3752 1.5208 1.6347 1.6135 1.4600 1.2461 1.0270 1.0046 0.9038 0.9039 1.1459 1.4808 1.7682 1.8669 1.8547 1.6846 1.5674 1.2908 1.1124 1.1071 0.9917 0.7893 0.7664 0.8901 0.7053 0.6697 0.6857 0.7106 0.6947 0.6778 0.6699 0.5689 0.5492 0.5150 0.4509 0.6103
0.3459 0.3508 0.3275 0.2808 0.2700 0.2790 0.3580 0.4120 0.5834 0.6368 0.5718 0.4939 0.6356 0.7619 0.4099 0.2421 0.1670 0.1231 0.0941 0.0544 0.0183 0.0046 0.0226 0.0346 0.0539 0.0692 0.0786 0.1300 0.0740 0.0472 0.4525 0.7214 0.2735 0.1725 0.2015 0.1929 0.2003 0.1815 0.2076 0.2455 0.2720 0.2594 0.3086 0.3513 0.3757 0.3933 0.3992 0.4264 0.4858 0.5522 0.6922 0.7390 0.7345 0.6936 0.4032 0.4042 0.4466 0.3229 0.3598 0.3694 0.3501 0.3542 0.3241 0.2964 0.2647 0.2512 0.2392 0.1830 1.1545 1.3013 0.0367 0.0224 0.0000 0.0065 1.1703 0.9379 1.8823 0.7662 1.0966 1.1681 1.2464 1.3913 1.3674 1.3148 1.2096 0.8872 0.9753 1.1773 1.2321 1.2827 1.3472 1.2998 1.3023 1.2866 1.3024 1.5882 1.7247 1.5157 1.2335 1.0691 0.9571 0.8847 1.0846 1.2592 1.5095 1.6034 1.5540 1.4804 1.2316 1.1073 0.9740 0.8338 0.8140 0.8457 0.7442 0.6852 0.8147 0.7527 0.6323 0.6399 0.6376 0.6635 0.6223 0.6680 0.5994 0.5658 0.4811 0.4070 0.3728
0.3720 0.3829 0.3789 0.3353 0.2742 0.2129 0.2022 0.2853 0.4665 0.5583 0.6896 0.8052 0.3283 0.6080 0.5312 0.2692 0.1737 0.1172 0.0935 0.0573 0.0018 0.0100 0.0083 0.0440 0.0616 0.0696 0.0749 0.1288 0.1133 0.2827 1.0543 0.7726 1.1361 0.3281 0.2035 0.2331 0.2875 0.2533 0.2566 0.2973 0.3663 0.3859 0.4024 0.4332 0.5075 0.5383 0.5209 0.6497 0.7469 0.5819 0.6697 0.5925 0.3634 0.4383 0.3718 0.3335 0.3557 0.3535 0.3611 0.3620 0.3436 0.3317 0.3150 0.2949 0.2643 0.2342 0.2436 0.1263 0.4161 1.7996 0.6036 0.0223 0.0011 0.0029 0.9282 1.1189 2.3411 0.7833 1.4489 1.3003 1.2896 1.3758 1.1410 0.7252 1.2162 1.3167 1.3179 1.3914 1.6173 1.4326 1.3214 1.0636 0.9295 0.9590 1.1133 1.5782 1.8565 1.6428 1.1917 0.9847 0.9172 1.0222 1.3097 1.4816 1.5573 1.4085 1.2515 1.1149 0.9773 0.8806 0.7681 0.6777 0.6542 0.7323 0.7609 0.6315 0.6934 0.7960 0.6045 0.6157 0.5752 0.6026 0.5954 0.6084 0.5955 0.5649 0.4983 0.3903 0.2652
0.3344 0.3830 0.3782 0.3607 0.2841 0.2707 0.2231 0.2124 0.4204 2.6018 4.1721 4.9607 0.8840 0.4479 0.6044 0.3609 0.1898 0.1198 0.0961 0.0489 0.0027 0.0130 0.0227 0.0377 0.0792 0.1144 0.1086 0.1289 0.2071 1.0770 0.8514 0.1755 1.0114 1.1585 0.2208 0.1645 0.2448 0.3205 0.3466 0.3866 0.4436 0.5162 0.5592 0.5841 0.5867 0.7019 0.7859 0.6751 0.6577 0.5173 0.3660 0.4443 0.3231 0.3316 0.3669 0.3641 0.3701 0.3624 0.3465 0.3278 0.3066 0.3090 0.2914 0.2517 0.2223 0.1960 0.2174 0.1128 0.1392 1.4492 1.1250 0.0280 0.0107 0.0092 0.0113 1.0412 1.0745 1.8038 1.6202 1.2136 1.2427 1.0026 1.2672 1.2171 1.3258 1.5249 1.6362 1.5523 1.5436 1.3222 1.0014 0.7175 0.6300 0.7889 1.2038 1.6439 1.9500 1.7231 1.1114 1.0095 1.0055 1.3050 1.5255 1.6158 1.4707 1.1647 0.9615 0.9165 0.8674 0.7356 0.6443 0.5781 0.5650 0.6064 0.6997 0.6576 0.6263 0.8269 0.6343 0.5563 0.5270 0.4844 0.4972 0.4779 0.4978 0.5213 0.5127 0.4403 0.4384
0.2221 0.3320 0.3985 0.3610 0.2987 0.3046 0.1951 0.2298 2.0854 3.4082 4.3465 6.0564 4.8707 0.1754 0.6219 0.3334 0.2161 0.1375 0.1049 0.0521 0.0085 0.0313 0.0564 0.0461 0.0924 0.1178 0.1714 0.1425 0.2794 0.8411 0.8848 0.1564 0.1484 0.7994 1.0755 0.2675 0.2704 0.3360 0.4090 0.4516 0.5220 0.5829 0.5948 0.8009 0.7836 0.6296 0.6409 0.5080 0.3508 0.4291 0.2775 0.3099 0.3591 0.3791 0.4022 0.3953 0.3782 0.3486 0.3143 0.2721 0.2859 0.2644 0.2567 0.2551 0.1915 0.1591 0.1656 0.1738 0.1481 1.4341 1.2078 0.0098 0.0290 0.0118 0.0232 0.0271 0.2852 1.5038 2.4531 1.5125 0.7038 1.2783 1.3828 1.5150 1.4724 1.6531 1.5959 1.4174 1.2976 1.0857 0.7440 0.5844 0.6896 1.0398 1.3350 1.5990 1.7630 1.7914 1.0416 1.0673 1.2089 1.5141 1.5872 1.5352 1.2509 0.9987 0.7638 0.7959 0.8219 0.7379 0.6203 0.5603 0.5597 0.5432 0.6032 0.6469 0.5757 0.6960 0.6669 0.4581 0.4605 0.3780 0.3866 0.3857 0.4052 0.4581 0.5363 0.5573 0.6363
0.2068 0.2967 0.3803 0.3426 0.2719 0.3277 0.3241 0.3548 1.0691 3.6613 2.7764 3.8540 5.3057 0.4276 0.3917 0.2448 0.2110 0.1449 0.1027 0.0592 0.0370 0.0837 0.1037 0.1129 0.1468 0.1565 0.1881 0.1995 0.2736 0.3955 0.6004 0.5090 0.3988 0.6299 0.5550 0.4590 0.3990 0.4059 0.4555 0.5018 0.5553 0.7000 0.6841 0.5814 0.5801 0.4114 0.3134 0.3876 0.2730 0.3130 0.3258 0.3346 0.3634 0.3663 0.3732 0.3540 0.3333 0.2749 0.2603 0.2470 0.2441 0.2266 0.2056 0.2290 0.2307 0.1893 0.1337 0.1263 0.1118 1.3664 2.0677 0.1850 0.0083 0.0315 0.0319 0.0177 0.2909 1.0954 2.7141 1.8363 1.1785 1.3350 1.2798 1.4683 1.4072 1.4564 1.3208 1.1456 0.9872 0.9293 0.6719 0.7288 1.0811 1.3815 1.5802 1.5288 1.5194 1.5373 1.2949 1.2629 1.4990 1.4811 1.5027 1.4104 1.1087 0.8754 0.7064 0.6574 0.7580 0.7518 0.6341 0.5065 0.5151 0.5589 0.5859 0.5638 0.5099 0.5189 0.6455 0.4352 0.3660 0.4045 0.4265 0.4422 0.4504 0.4549 0.5545 0.6909 0.8000
0.2196 0.3237 0.4173 0.3850 0.2745 0.2424 0.3159 0.3435 0.8932 2.0302 3.2112 4.9349 2.7969 0.3813 0.3284 0.3456 0.1509 0.0971 0.0973 0.1009 0.1125 0.1554 0.1702 0.1959 0.2068 0.2393 0.2436 0.2684 0.2632 0.3645 0.2955 0.0042 0.0066 0.2194 0.5026 0.5007 0.4900 0.5096 0.5551 0.6860 0.6044 0.4707 0.4550 0.2582 0.2518 0.3088 0.2368 0.2810 0.2945 0.2997 0.3181 0.3244 0.3254 0.3084 0.2973 0.2621 0.2580 0.2468 0.2172 0.2318 0.2044 0.2265 0.2228 0.2151 0.2098 0.1898 0.1762 0.1104 0.0911 0.3332 2.4661 2.2813 0.2540 0.1663 0.0159 0.0903 0.5240 0.4449 2.0292 1.9854 1.3974 1.2105 1.1829 1.1911 1.1413 1.0034 0.9687 0.8624 0.6976 0.8056 0.7676 0.8440 1.2638 1.6151 1.7168 1.4786 1.2708 1.1822 1.4292 1.3792 1.5783 1.4592 1.4831 1.2492 0.9657 0.7250 0.6616 0.5612 0.6387 0.7322 0.7017 0.5548 0.4747 0.4918 0.5384 0.5449 0.4457 0.3742 0.5294 0.5202 0.5131 0.5276 0.5239 0.5058 0.5133 0.5455 0.7070 0.8166 0.9291
0.1369 0.2455 0.3710 0.4211 0.4038 0.3027 0.2918 0.2676 0.2159 0.8050 2.4179 2.6713 0.5413 0.2200 0.2964 0.2721 0.2597 0.2537 0.2077 0.1914 0.1904 0.1949 0.2234 0.2403 0.2821 0.3181 0.3499 0.3480 0.3366 0.3435 0.3921 0.3753 0.4379 0.4867 0.5238 0.5366 0.6349 0.6650 0.5610 0.4675 0.3404 0.1688 0.2082 0.2086 0.1911 0.2246 0.2347 0.2580 0.2802 0.2843 0.2878 0.2787 0.2628 0.2503 0.2172 0.2085 0.1891 0.1887 0.1816 0.1626 0.1719 0.2056 0.2209 0.2019 0.2270 0.1860 0.1747 0.1423 0.1121 0.1825 0.3144 1.5463 0.9569 0.5266 0.2654 0.1371 0.3834 0.2078 0.7262 2.1980 1.2348 1.1173 1.0096 0.8155 0.8395 0.6154 0.6911 0.6507 0.5531 0.7019 0.8370 0.9196 1.2250 1.6292 1.8003 1.5083 0.9882 0.9557 1.1917 1.3690 1.4416 1.4413 1.3162 0.9904 0.7525 0.5611 0.5564 0.6074 0.5317 0.5945 0.6954 0.6380 0.5187 0.4643 0.4634 0.5079 0.4627 0.3337 0.5142 0.7112 0.6325 0.6073 0.6107 0.5522 0.5846 0.6742 0.8225 0.7827 1.0225
0.1255 0.1635 0.2442 0.2542 0.3429 0.2954 0.3030 0.3424 0.3038 0.1246 0.2236 0.2971 0.5332 0.5131 0.5404 0.4466 0.3641 0.2561 0.1915 0.1618 0.1579 0.1732 0.1708 0.2382 0.2636 0.2796 0.2904 0.3247 0.3642 0.4002 0.4387 0.4550 0.4767 0.4559 0.4370 0.4767 0.4575 0.3975 0.2960 0.1422 0.1800 0.1448 0.1544 0.1658 0.1716 0.1969 0.2152 0.2300 0.2425 0.2428 0.2300 0.2146 0.1710 0.1560 0.1518 0.1600 0.1462 0.1305 0.1443 0.1585 0.1354 0.1462 0.1928 0.1807 0.1986 0.1972 0.1728 0.1668 0.1220 0.0957 0.2469 0.8781 0.5199 0.1796 0.4398 0.3382 0.5260 0.3065 0.0697 1.1373 0.9728 0.8576 0.6241 0.5315 0.5562 0.4671 0.4814 0.5154 0.5191 0.5948 0.8262 0.9555 1.2916 1.5652 1.6231 1.4200 0.8205 0.7961 1.0804 1.2991 1.2393 1.2801 1.0203 0.7787 0.5839 0.4760 0.4460 0.5779 0.5857 0.5406 0.5566 0.6002 0.5114 0.4498 0.4351 0.4780 0.5230 0.4856 0.6461 0.8534 0.7646 0.6929 0.6820 0.6246 0.7680 0.9783 1.0742 0.9002 1.2683
0.1434 0.1420 0.1559 0.1342 0.1987 0.1931 0.2293 0.2875 0.3402 0.4366 0.5126 0.8302 0.6830 0.6510 0.6469 0.3693 0.2504 0.1502 0.1114 0.1039 0.1167 0.1247 0.1455 0.2395 0.1998 0.1963 0.1875 0.2477 0.3032 0.3610 0.4107 0.4471 0.4338 0.3545 0.2909 0.3189 0.2052 0.1520 0.1923 0.0945 0.1403 0.1247 0.1173 0.1378 0.1540 0.1737 0.1828 0.1896 0.1969 0.1979 0.1823 0.1680 0.1178 0.0945 0.1141 0.1342 0.1319 0.1141 0.0936 0.1408 0.1351 0.1312 0.1610 0.1699 0.1803 0.2110 0.2100 0.1863 0.1479 0.0956 0.0833 0.8839 1.0657 0.6904 0.3785 0.6763 0.5994 0.1634 0.2708 0.6060 0.7302 0.5891 0.3802 0.3932 0.4063 0.4096 0.3870 0.3886 0.4609 0.5193 0.8089 0.9965 1.2316 1.4012 1.3828 1.1307 0.5579 0.7011 1.0071 1.1610 1.0574 1.0713 0.7784 0.6538 0.5080 0.4506 0.4059 0.4848 0.5463 0.5314 0.4754 0.5260 0.4709 0.4064 0.3893 0.4251 0.5535 0.7175 0.8395 0.8467 0.7905 0.7728 0.7392 0.8026 1.0793 1.3021 1.4897 1.4558 1.6151
