NCOLS 129
NROWS 89
XLLCORNER 4477375.0000000000
YLLCORNER 5725725.0000000000
CELLSIZE 10.000000
NODATA_VALUE -99999.0000
2.1329 3.1317 4.6960 3.2255 2.4834 4.7077 4.1931 3.7404 3.1149 2.7391 2.4040 2.0521 1.7716 1.4613 1.0966 1.2538 0.9265 1.0341 1.2811 1.4603 1.6277 1.7878 1.9047 1.9712 2.0172 2.0520 2.0960 2.0882 2.1228 2.1273 2.1466 2.2127 2.3296 2.4743 2.5433 2.6981 2.8120 2.9148 2.9349 2.8147 2.8051 2.8490 2.8713 2.8727 2.9675 3.0656 3.0567 3.0709 3.0917 3.0891 3.0402 2.9992 3.0531 3.1094 3.2272 3.4008 3.6286 3.8111 3.9452 4.0587 4.1257 4.2616 4.4227 4.5686 4.6063 4.6717 4.7296 4.7713 4.7059 4.4986 4.2900 3.9457 3.7454 3.5507 3.6095 3.8897 3.9907 4.1935 4.3531 4.6136 4.7843 4.8800 4.9838 5.1114 4.8824 4.8024 4.3976 3.9133 3.4219 2.6564 1.7940 1.2398 0.8359 0.6164 0.4437 0.4647 0.4840 0.4440 0.4181 0.3649 0.2889 0.2286 0.1954 1.0229 0.8743 7.7229 10.9298 12.6918 14.6970 16.1610 16.8165 16.8643 1.9936 1.5053 0.7870 0.4510 0.4827 0.8139 1.1030 1.6665 1.1688 0.8807 0.7979 1.0607 0.6705 0.9392 1.2756 1.6473 1.9690
2.1579 2.4734 2.4245 2.3628 2.3147 2.3582 2.2116 1.7044 1.5402 1.4980 1.3875 1.1661 1.1229 1.0621 1.0113 0.9824 0.8855 0.8330 0.8469 0.8273 0.8387 0.8569 0.8084 0.6948 0.6391 0.6575 0.7120 1.0512 1.1460 1.3219 1.4872 1.5726 1.5770 1.4663 1.5976 1.4424 1.3661 1.2036 1.2906 1.8134 1.9291 1.9454 1.9559 2.0257 1.9725 1.8331 1.9814 2.0362 2.0558 2.1294 2.2937 2.4486 2.4531 2.5091 2.5732 2.5963 2.5647 2.6091 2.7037 2.8189 2.8603 2.7855 2.6442 2.4059 2.4835 2.4352 2.3625 2.3024 2.5283 3.0224 3.3136 3.6385 3.7466 3.9075 3.8517 3.8644 3.8987 3.8282 3.7801 3.5393 3.2270 2.9656 2.6500 2.0603 2.8634 2.8007 3.3510 3.5065 3.5124 3.6707 2.9871 2.2261 1.4654 1.0845 0.8280 0.6795 0.6254 0.5910 0.5395 0.4800 0.4065 0.3634 2.4177 1.2655 8.3826 9.9261 9.5524 8.8588 9.8963 9.0511 3.7684 1.6581 1.3784 1.4519 1.1270 0.6701 0.5831 0.6899 0.8175 0.8105 0.8357 0.7830 0.7342 0.7380 0.6289 0.7399 0.8760 1.2674 1.2392
2.1135 2.2771 2.1515 2.1463 2.0641 2.0016 1.7487 1.3890 1.3380 1.2796 1.1832 1.0322 0.9958 0.9456 0.9074 0.8717 0.8067 0.7426 0.7548 0.7295 0.7203 0.7300 0.7135 0.6425 0.6195 0.6725 0.7061 0.7251 0.7663 0.8352 0.9372 0.9809 1.0497 1.0722 1.0550 1.0818 1.0482 0.9228 0.8515 0.8941 1.0282 1.0576 1.0636 1.1069 1.0791 1.0475 1.0565 1.3103 1.4868 1.6722 1.8052 1.8696 1.9922 2.1790 2.2879 2.3611 2.3569 2.2554 2.1802 1.8873 1.9685 1.9470 1.8201 1.6484 1.5591 1.4977 1.4724 1.4414 1.5071 1.6211 1.8093 2.0317 2.3106 2.5710 2.6793 2.3854 1.9715 1.6727 1.2795 1.1181 1.2921 1.4397 1.4406 1.4425 1.3617 1.7335 1.8915 2.6361 2.9551 3.2106 3.3641 2.9119 2.2625 1.5649 1.1679 0.9290 0.7939 0.6906 0.5696 0.5218 0.4922 7.6910 12.5411 14.2394 13.9916 13.5341 12.8204 11.6378 9.2551 4.0578 2.0179 1.5052 1.4156 1.5242 1.3580 1.1295 0.8125 0.7856 0.7859 0.7250 0.7856 0.7316 0.6909 0.7002 0.6719 0.7588 0.6674 1.1209 1.3015
2.0673 2.0594 1.9272 1.8872 1.8044 1.6322 1.4162 1.2369 1.1312 1.0560 0.9786 0.8815 0.8312 0.8049 0.7537 0.7489 0.6937 0.6709 0.6505 0.6603 0.6683 0.6744 0.6543 0.6261 0.6521 0.7210 0.7803 0.8246 0.8877 0.9705 1.0085 1.0498 1.0661 1.0096 1.0120 0.9985 0.9104 0.8100 0.7788 0.8122 0.8795 0.8727 0.9019 0.9385 1.0280 1.1222 1.2139 1.3141 1.3997 1.5366 1.6178 1.7378 1.9263 2.0477 2.1972 2.2399 2.2049 2.1019 2.0413 1.9959 1.8591 1.7178 1.6104 1.5580 1.4761 1.4153 1.3809 1.3869 1.3621 1.3939 1.5065 1.6001 1.7118 1.7297 1.6449 1.5333 1.4125 1.2990 1.1864 1.0737 0.9735 0.9538 1.0027 1.0333 1.0777 1.1923 1.4780 1.8281 2.4260 2.8079 3.2606 3.2349 2.8561 2.3278 1.7190 1.3111 1.0184 0.8349 0.6723 0.4686 14.4918 15.8453 13.1176 11.7840 9.9244 7.2610 4.4615 2.6268 1.6798 1.5223 1.5196 1.4092 1.3544 1.3942 1.3652 1.2193 0.9257 0.8265 0.7692 0.8010 0.7626 0.7305 0.7172 0.7242 0.7497 0.8329 0.7758 0.9034 1.3723
1.6823 1.5930 1.5240 1.4971 1.3679 1.2489 1.1232 0.9899 0.9609 0.8865 0.7257 0.6380 0.6205 0.6124 0.6175 0.5515 0.5966 0.5293 0.4642 0.5713 0.6324 0.6460 0.6321 0.6007 0.6307 0.6865 0.6987 0.7095 0.7266 0.7675 0.7796 0.8454 0.9037 0.9456 1.0249 1.0514 1.0296 1.0269 1.0820 1.0695 1.0861 1.1590 1.1735 1.2437 1.3342 1.4438 1.4964 1.6038 1.6851 1.7732 1.8290 1.9736 2.0886 2.2791 2.2436 2.1617 1.9712 1.9122 1.8562 1.7876 1.6680 1.5705 1.5027 1.4382 1.3929 1.3689 1.3397 1.3112 1.3209 1.3297 1.3071 1.2563 1.1259 1.0520 1.0690 1.0446 1.1097 1.0849 1.0099 0.8879 0.8559 0.8407 0.8205 0.8816 0.9191 1.0183 1.2189 1.4544 1.8801 2.4222 2.9642 3.3008 3.1395 2.8198 2.3229 1.8120 12.3583 15.1358 16.5159 16.7302 12.1849 4.6568 2.5505 2.1912 1.9634 1.7810 1.7210 1.6093 1.4703 1.5682 1.5064 1.4264 1.3903 1.2724 1.2694 1.2611 0.9892 0.8671 0.8117 0.8392 0.7813 0.8403 0.8092 0.8001 0.8090 0.7915 0.7653 0.8814 1.3300
1.0566 1.2522 1.3594 1.0110 0.9215 0.8676 0.8049 0.7718 0.7362 0.7012 0.5676 0.5136 0.5059 0.5040 0.5554 0.5785 0.5792 0.6092 0.6677 0.6770 0.7213 0.7316 0.7485 0.7417 0.7464 0.7409 0.7701 0.7863 0.8538 0.8861 0.9539 1.0379 1.0849 1.1223 1.1150 1.1228 1.1913 1.1679 1.1331 1.1883 1.2351 1.3041 1.3946 1.5009 1.5754 1.6140 1.7425 1.7763 1.8297 1.8539 2.0367 2.1236 2.3132 2.2317 2.1085 1.9602 1.9066 1.7912 1.6426 1.3910 1.2773 1.2577 1.2160 1.1524 1.1113 1.0538 1.0257 1.0085 0.9827 0.9592 0.8913 0.8552 0.7743 0.8039 0.8187 0.8220 0.8347 0.8514 0.7775 0.7265 0.7316 0.7472 0.8101 0.8047 0.8826 0.9814 1.0994 1.3198 1.5659 2.0058 2.5171 3.0747 3.8259 3.0549 16.6815 16.7201 13.1430 10.9574 5.4382 3.0490 2.0111 1.7973 1.8106 1.8540 1.8215 1.7125 1.6693 1.6455 1.4682 1.4675 1.4371 1.4125 1.3249 1.2839 1.1920 1.2192 1.0605 0.8826 0.8857 0.8527 0.8709 0.8569 0.8357 0.8085 0.8088 0.7184 0.7673 0.9994 1.2293
0.7477 0.9322 1.0794 0.7973 0.7009 0.6546 0.6498 0.6300 0.6275 0.6027 0.5554 0.5367 0.5187 0.5233 0.5940 0.6698 0.6669 0.6832 0.7011 0.7143 0.7243 0.7259 0.7316 0.7434 0.7357 0.7709 0.7935 0.8809 0.9257 0.9733 1.0627 1.1082 1.1206 1.1831 1.1778 1.2398 1.1722 1.1891 1.2608 1.2818 1.3665 1.5101 1.6314 1.6884 1.7721 1.8345 1.8946 1.8908 1.9043 2.0992 2.3026 2.3624 2.2450 1.9734 1.7488 1.5510 1.3588 1.1646 1.0052 0.8902 0.8611 0.8320 0.7904 0.7814 0.7752 0.7522 0.7636 0.7577 0.7497 0.7457 0.7139 0.7337 0.7197 0.7480 0.7955 0.7744 0.7646 0.7091 0.6745 0.6480 0.7024 0.7749 0.8268 0.8858 0.9126 1.0205 1.1127 1.2806 1.4062 1.7667 2.7699 6.7743 16.4248 16.6794 2.3094 1.8377 1.7239 1.5277 1.6597 1.7484 1.6678 1.7040 1.8419 1.7621 1.8155 1.6986 1.5491 1.6218 1.4901 1.3991 1.3688 1.3471 1.2632 1.2697 1.1414 1.1767 1.0972 0.9562 0.9029 0.8848 0.8761 0.8893 0.8428 0.8087 0.7868 0.7443 0.7556 0.9340 1.2002
0.6298 0.7119 0.8230 0.6619 0.6092 0.5566 0.5840 0.5646 0.5515 0.5398 0.5294 0.5146 0.5005 0.5673 0.6343 0.6486 0.6129 0.6307 0.6703 0.7512 0.7474 0.7833 0.7997 0.8325 0.8808 0.9060 0.9580 0.9970 1.0185 1.0653 1.0991 1.1261 1.1731 1.2393 1.2982 1.3179 1.3090 1.3242 1.3362 1.4599 1.5409 1.6317 1.7394 1.8487 1.9358 2.0411 2.0764 2.0487 2.1749 2.3433 2.1754 1.9823 1.6944 1.4063 1.1942 1.0658 0.9638 0.8639 0.7883 0.7661 0.7370 0.7116 0.6997 0.6889 0.6831 0.6843 0.7038 0.7058 0.6869 0.6796 0.6639 0.7101 0.7191 0.7356 0.7428 0.7398 0.7203 0.7257 0.7032 0.7015 0.7326 0.8306 0.9358 0.9943 1.0227 1.0847 1.1702 1.3003 1.4975 5.4929 14.6837 16.0289 4.9547 1.9828 2.0247 1.9558 1.5586 1.4959 1.6469 1.8000 1.6611 1.6405 1.8237 1.7828 1.7161 1.7301 1.4767 1.5290 1.4796 1.3300 1.2818 1.2673 1.2280 1.2284 1.1482 1.1288 1.1206 0.9997 0.9291 0.8926 0.9131 0.8797 0.8433 0.8056 0.7561 0.7127 0.6906 0.8927 1.1853
0.5406 0.5765 0.5844 0.5827 0.5176 0.4869 0.5039 0.4710 0.4713 0.4571 0.4453 0.4872 0.5347 0.5924 0.5998 0.5805 0.5940 0.6244 0.7080 0.7889 0.8552 0.8966 0.9218 0.9715 0.9839 1.0281 1.0639 1.1196 1.1210 1.1398 1.1973 1.1987 1.2570 1.3512 1.4044 1.3934 1.3361 1.3715 1.4153 1.5363 1.6096 1.7851 1.9704 2.0451 2.1589 2.1599 2.1116 2.1460 2.1514 1.8250 1.5188 1.2363 1.0551 0.9744 0.8676 0.7987 0.7654 0.7147 0.7039 0.7032 0.6789 0.6486 0.6325 0.6392 0.6397 0.6482 0.6375 0.6275 0.6149 0.6428 0.6664 0.6868 0.6984 0.6858 0.7278 0.7396 0.7429 0.7526 0.8218 0.8099 0.8352 0.9461 1.0301 1.1278 1.1350 1.1650 1.2509 3.0692 10.1132 16.2499 11.1771 5.7118 2.1149 2.0622 2.1293 1.9332 1.5918 1.4892 1.6040 1.8198 1.6600 1.5871 1.7270 1.7680 1.6475 1.6785 1.4388 1.4077 1.4149 1.2599 1.2136 1.1942 1.1577 1.1890 1.1403 1.1211 1.1120 1.0296 0.9641 0.9379 0.9159 0.8670 0.8234 0.7801 0.7258 0.6816 0.6496 0.7453 1.2213
0.5011 0.4909 0.4902 0.5089 0.4755 0.4613 0.4621 0.4602 0.4240 0.4030 0.4177 0.4877 0.5540 0.5492 0.5658 0.5697 0.6051 0.6385 0.7227 0.7980 0.8862 0.9997 1.0951 1.1438 1.1526 1.2080 1.2660 1.2507 1.2875 1.2988 1.2736 1.3248 1.3523 1.4171 1.4538 1.3824 1.3278 1.4437 1.5655 1.7450 1.9855 2.1001 2.1399 2.0855 1.9956 1.8595 1.7184 1.6287 1.5134 1.1976 1.0069 0.9850 0.9162 0.8335 0.7580 0.7108 0.6848 0.6786 0.6782 0.6748 0.6463 0.6213 0.6208 0.6149 0.6065 0.5997 0.5984 0.6004 0.6198 0.6595 0.6589 0.6781 0.6939 0.6751 0.7157 0.7755 0.7924 0.8693 0.9115 0.9783 0.9756 1.0992 1.1819 1.2541 1.2843 1.6388 6.8877 15.4954 14.7277 3.4260 1.9389 2.1898 2.2638 2.0708 2.1075 1.9617 1.6597 1.4760 1.4935 1.7741 1.6491 1.5302 1.6067 1.6840 1.5890 1.5636 1.3844 1.3012 1.3159 1.1918 1.1364 1.1231 1.1372 1.1273 1.1595 1.1171 1.1264 1.0728 0.9828 0.9769 0.9032 0.8434 0.8100 0.7606 0.6897 0.6536 0.6410 0.7980 1.1740
0.4665 0.4464 0.4460 0.4905 0.4607 0.4573 0.4543 0.4338 0.4157 0.4423 0.4711 0.5507 0.5163 0.5291 0.5583 0.5767 0.6183 0.6483 0.7168 0.7929 0.8739 0.9646 1.0737 1.1739 1.2755 1.3307 1.3419 1.3837 1.4384 1.4770 1.4456 1.3797 1.4684 1.4985 1.4757 1.3417 1.4676 1.7091 1.8302 1.9420 1.9569 1.8350 1.6324 1.5624 1.2580 1.1948 1.1100 1.0582 1.0336 1.0136 0.9672 0.9427 0.8488 0.7591 0.6872 0.6748 0.6837 0.6824 0.6743 0.6647 0.6620 0.6423 0.6134 0.5962 0.5835 0.5773 0.5909 0.5927 0.6056 0.6437 0.6712 0.7029 0.6911 0.6854 0.7163 0.7841 0.8822 0.9565 1.0469 1.1141 1.1725 1.2208 1.2986 1.8163 3.8987 11.6761 15.9313 8.7707 2.2002 1.9375 1.9249 2.1681 2.2624 2.0212 2.0597 1.9401 1.7222 1.4256 1.4111 1.6081 1.6229 1.4553 1.4764 1.5885 1.5075 1.4475 1.3417 1.1952 1.2267 1.1388 1.0829 1.0817 1.1328 1.1117 1.1646 1.1396 1.1511 1.0873 1.0422 0.9613 0.8842 0.8329 0.7846 0.7469 0.7029 0.7080 0.7389 0.6807 1.1303
0.4270 0.4065 0.4198 0.4577 0.4379 0.4350 0.4413 0.4235 0.4275 0.4747 0.5078 0.4737 0.4795 0.5122 0.5519 0.5810 0.6071 0.6339 0.6805 0.7480 0.8227 0.8925 0.9547 0.9514 0.9527 0.9387 0.9939 1.1062 1.1801 1.2582 1.3816 1.4674 1.4677 1.3838 1.4182 1.6010 1.6824 1.6098 1.6182 1.5075 1.3487 1.1457 1.0603 1.0780 1.0310 1.0242 1.0401 1.0238 0.9955 0.9977 0.9305 0.8308 0.7963 0.7418 0.6901 0.6827 0.6845 0.6910 0.6871 0.6916 0.6738 0.6507 0.6299 0.6288 0.6168 0.6050 0.6100 0.6097 0.6178 0.6522 0.6561 0.6591 0.7057 0.7363 0.7655 0.8589 0.9638 1.0344 1.1715 1.2641 1.3231 1.6240 3.9244 8.7146 14.9287 13.8234 2.3561 2.2220 2.2634 1.9991 1.8602 2.1101 2.2155 1.9964 1.9653 1.9564 1.7365 1.4222 1.3084 1.4718 1.5698 1.3931 1.3586 1.4679 1.4290 1.3156 1.3220 1.1235 1.1391 1.1142 1.0441 1.0727 1.1403 1.1351 1.1769 1.1850 1.1560 1.0973 1.0273 0.9516 0.8747 0.8225 0.7625 0.7443 0.7291 0.7586 0.7263 0.6040 1.0671
0.3776 0.3635 0.3889 0.4136 0.4017 0.4048 0.4221 0.4197 0.4238 0.4886 0.4618 0.4525 0.4824 0.5130 0.5558 0.5823 0.6053 0.6340 0.6634 0.7228 0.7614 0.8236 0.8497 0.8506 0.8485 0.8702 0.8873 0.9070 0.9160 0.9553 1.0062 1.0785 1.0098 1.0743 1.0886 1.2344 1.1101 1.0104 1.0025 1.0068 1.0138 0.9424 0.9303 0.9884 0.9903 1.0085 1.0147 0.9756 0.9677 0.9406 0.8595 0.7962 0.7540 0.7565 0.7303 0.6809 0.7018 0.7312 0.7403 0.7260 0.7224 0.7013 0.6869 0.6776 0.6559 0.6338 0.6270 0.6270 0.6125 0.6313 0.6794 0.7307 0.7662 0.8349 0.8589 0.9578 1.0859 1.1593 1.2692 1.3452 1.9081 10.5807 12.3669 14.5766 10.3907 2.6109 2.3768 2.2210 2.2625 2.0392 1.8351 1.9848 2.1719 1.9446 1.8733 1.9412 1.7223 1.4195 1.2613 1.3275 1.5277 1.3557 1.2696 1.3448 1.3931 1.2499 1.2255 1.0890 1.0707 1.1072 1.0449 1.0853 1.1415 1.1551 1.1717 1.1947 1.1591 1.0827 1.0205 0.9451 0.8788 0.8137 0.7895 0.7775 0.7921 0.7469 0.6725 0.5474 0.9947
0.3260 0.3155 0.3451 0.3713 0.3674 0.3964 0.4021 0.4028 0.4611 0.4732 0.4303 0.4554 0.4830 0.5124 0.5611 0.5850 0.6135 0.6352 0.6416 0.6770 0.6868 0.7382 0.7785 0.7920 0.8081 0.8318 0.8397 0.8477 0.8451 0.8645 0.8737 0.8960 0.9105 0.8925 0.8875 0.9554 0.9075 0.8403 0.8544 0.8560 0.8690 0.8505 0.8658 0.9259 0.9413 0.9500 0.9398 0.9182 0.9209 0.8880 0.8592 0.7362 0.7987 0.7731 0.7524 0.7426 0.7695 0.7916 0.7917 0.7962 0.7806 0.7687 0.7321 0.7049 0.6924 0.6493 0.6703 0.6364 0.6382 0.6742 0.7323 0.7940 0.9084 0.9976 0.9935 1.0835 1.2208 1.2697 1.3691 1.9773 9.5653 14.2823 12.3672 6.6706 3.1745 2.5906 2.3304 2.1594 2.2327 2.0969 1.7619 1.8543 2.0714 1.9306 1.7910 1.8929 1.7186 1.4811 1.2549 1.2174 1.4171 1.3699 1.2340 1.2323 1.3108 1.2104 1.1490 1.0856 1.0265 1.1157 1.0649 1.1043 1.1403 1.1651 1.1667 1.2060 1.1521 1.0678 1.0120 0.9415 0.8708 0.8021 0.7837 0.7875 0.7720 0.6634 0.5725 0.5140 0.9365
0.2747 0.2593 0.3065 0.3354 0.3573 0.3703 0.3906 0.4214 0.4372 0.4171 0.4124 0.4471 0.4797 0.5101 0.5500 0.5822 0.6053 0.6129 0.6048 0.6125 0.6080 0.6724 0.7313 0.7565 0.7859 0.7854 0.7860 0.7773 0.7675 0.7801 0.7922 0.8047 0.8176 0.8268 0.8015 0.8138 0.7549 0.7359 0.7533 0.7578 0.7653 0.8045 0.8096 0.8510 0.8893 0.8983 0.9141 0.9150 0.9030 0.8784 0.8462 0.7976 0.7830 0.8036 0.8064 0.8083 0.8163 0.8423 0.8569 0.8417 0.8359 0.8063 0.7878 0.7862 0.7657 0.7130 0.6885 0.6903 0.6698 0.7496 0.8339 0.9199 1.0301 1.1467 1.1964 1.2647 1.3298 1.3755 3.0003 12.0978 14.3737 7.0486 6.8356 3.2900 2.9402 2.7119 2.2040 2.1831 2.1233 2.0903 1.8147 1.7437 1.9356 1.9404 1.6863 1.8038 1.7037 1.5155 1.2882 1.1806 1.3169 1.3990 1.2134 1.1625 1.2531 1.1880 1.0743 1.1542 1.0378 1.1055 1.1225 1.1135 1.1589 1.1902 1.1872 1.1889 1.1086 1.0550 0.9978 0.9326 0.8667 0.7892 0.7929 0.7913 0.6776 0.6298 0.5550 0.5527 0.8663
0.2293 0.2297 0.2731 0.3189 0.3374 0.3773 0.3828 0.3967 0.4021 0.3799 0.4061 0.4267 0.4713 0.5086 0.5467 0.5771 0.5841 0.5870 0.5633 0.5662 0.5736 0.6198 0.6779 0.7164 0.7374 0.7254 0.7116 0.7101 0.7070 0.7227 0.7291 0.7333 0.7355 0.7305 0.7124 0.6920 0.6498 0.6481 0.6494 0.6997 0.7044 0.7802 0.8038 0.8071 0.8805 0.8842 0.8881 0.9057 0.8936 0.8665 0.8792 0.8029 0.8316 0.8623 0.8791 0.8783 0.8799 0.9008 0.9088 0.8987 0.8568 0.8410 0.8396 0.8333 0.8592 0.7979 0.7978 0.8112 0.8017 0.8528 0.9423 1.0701 1.1631 1.2763 1.3613 1.3844 1.6542 5.1982 13.2304 13.7583 2.6038 2.4321 3.4715 2.6875 2.8603 2.7085 2.2413 2.1635 2.0538 2.0696 1.8192 1.6837 1.7519 1.8835 1.6578 1.6824 1.6864 1.5588 1.3116 1.1999 1.2553 1.3655 1.2230 1.1331 1.2038 1.1771 1.1105 1.1541 1.0871 1.1173 1.1469 1.1238 1.1662 1.2017 1.1717 1.1377 1.1140 1.0504 0.9867 0.9234 0.8312 0.7846 0.8135 0.6801 0.6337 0.5868 0.5583 0.5699 0.7614
0.2021 0.2430 0.2794 0.3158 0.3272 0.3426 0.3574 0.3649 0.3521 0.3656 0.3996 0.4244 0.4749 0.5149 0.5416 0.5600 0.5691 0.5370 0.5265 0.5454 0.5454 0.5624 0.6200 0.6554 0.6598 0.6505 0.6485 0.6548 0.6668 0.6774 0.6728 0.6584 0.6513 0.6424 0.6144 0.6020 0.5974 0.5646 0.5940 0.6709 0.6881 0.7742 0.7789 0.7873 0.8545 0.8868 0.9081 0.9142 0.8774 0.8646 0.8466 0.8373 0.8549 0.8840 0.9189 0.9437 0.9274 0.9275 0.9678 0.9438 0.9477 0.9298 0.8971 0.8832 0.9149 0.9527 0.9425 0.9748 0.9982 1.0374 1.0846 1.2238 1.2560 1.4165 1.5346 2.1873 8.0446 14.6304 12.4424 2.8814 3.0809 2.5153 2.4256 2.5545 2.6962 2.7211 2.2374 2.1631 2.0144 2.0196 1.8536 1.5948 1.6684 1.7629 1.5951 1.5571 1.6896 1.5159 1.4015 1.2163 1.2135 1.3249 1.2369 1.1674 1.1413 1.2040 1.1663 1.1459 1.1072 1.1443 1.1762 1.1509 1.2279 1.1950 1.1436 1.1097 1.0792 1.0106 0.9785 0.8857 0.8301 0.8342 0.6852 0.6252 0.5875 0.5503 0.5531 0.5089 0.6213
0.1971 0.2489 0.2672 0.2907 0.3026 0.3125 0.3283 0.3236 0.3343 0.3614 0.3764 0.4189 0.4736 0.5085 0.5223 0.5250 0.5092 0.5059 0.5199 0.5041 0.4835 0.5047 0.5624 0.5969 0.5937 0.6086 0.5992 0.6116 0.6196 0.6207 0.6148 0.5992 0.5995 0.5845 0.5410 0.5631 0.5699 0.5468 0.5558 0.6429 0.6837 0.7449 0.7751 0.7754 0.8139 0.8825 0.8918 0.8557 0.8598 0.8864 0.8949 0.8751 0.8465 0.9005 0.9300 0.9601 0.9701 0.9755 0.9979 1.0014 0.9375 0.9005 0.9184 0.9224 0.9817 1.0127 1.0669 1.1261 1.1244 1.1752 1.2006 1.2863 1.3522 1.5582 4.1686 11.5600 14.4105 8.4657 2.9588 3.0495 3.0284 2.6444 2.1789 2.4696 2.5094 2.6878 2.2991 2.0872 2.0205 1.9216 1.8450 1.5905 1.5698 1.6528 1.5864 1.4939 1.6340 1.5266 1.4195 1.2604 1.1886 1.3011 1.2713 1.1956 1.1525 1.2285 1.1828 1.1289 1.1728 1.1952 1.1918 1.2227 1.1890 1.1469 1.0998 1.0715 1.0475 1.0192 0.9353 0.8984 0.8544 0.7127 0.6298 0.5470 0.5274 0.5139 0.5014 0.5157 0.5303
0.1964 0.2461 0.2555 0.2729 0.2775 0.2919 0.3006 0.3151 0.3292 0.3431 0.3717 0.4089 0.4461 0.4871 0.5009 0.5054 0.5165 0.5200 0.5057 0.5010 0.4522 0.4677 0.5127 0.5496 0.5663 0.5574 0.5623 0.5616 0.5638 0.5640 0.5525 0.5445 0.5527 0.5509 0.5389 0.5315 0.5526 0.5344 0.5387 0.6273 0.7001 0.7404 0.7844 0.7961 0.8057 0.8465 0.8732 0.8875 0.8689 0.8614 0.8666 0.8707 0.8769 0.8664 0.8977 0.9318 0.9441 0.9395 0.9665 0.9851 0.9988 0.9173 0.9187 0.9484 1.0197 1.1094 1.1858 1.2662 1.2929 1.3268 1.3510 1.4857 2.3815 7.0724 14.8193 12.5632 4.3513 2.9844 3.1497 3.0226 2.8972 2.7333 2.2306 2.3199 2.3850 2.5917 2.3238 2.0019 1.9982 1.8328 1.8253 1.5913 1.4694 1.5615 1.5880 1.4483 1.5742 1.5171 1.4444 1.3064 1.2033 1.2636 1.2834 1.2303 1.1982 1.2446 1.2018 1.1832 1.2368 1.2024 1.2307 1.1916 1.1478 1.1068 1.0732 1.0515 1.0371 1.0098 0.9522 0.8470 0.7601 0.6520 0.5563 0.5237 0.4641 0.4948 0.4773 0.5097 0.6428
0.1901 0.2434 0.2442 0.2495 0.2661 0.2872 0.2997 0.2985 0.3198 0.3320 0.3512 0.3614 0.4017 0.4631 0.4802 0.4845 0.5070 0.4981 0.4860 0.4208 0.4005 0.4506 0.4833 0.5113 0.5330 0.5213 0.5082 0.5056 0.4974 0.4940 0.5048 0.5273 0.5320 0.5468 0.5277 0.5312 0.5500 0.5482 0.5817 0.6415 0.7065 0.7493 0.8148 0.8264 0.8396 0.8708 0.8677 0.8675 0.8669 0.8609 0.8605 0.9018 0.9140 0.8905 0.9130 0.9333 0.9295 0.9378 0.9920 1.0520 1.0722 1.0569 1.0299 1.0429 1.0896 1.1783 1.3033 1.3797 1.4191 1.5425 2.1627 5.0731 11.3202 14.6373 7.4719 2.8705 2.9529 3.0669 3.1707 3.0097 2.8582 2.6910 2.3501 2.1902 2.2436 2.4374 2.3124 1.9791 1.9329 1.7665 1.7667 1.5868 1.4418 1.4933 1.5677 1.4476 1.4869 1.5812 1.4249 1.3381 1.2400 1.2635 1.2934 1.2540 1.2639 1.2497 1.2519 1.2293 1.2435 1.2425 1.2078 1.1585 1.1118 1.0779 1.0602 1.0587 1.0490 1.0004 0.9090 0.7909 0.6325 0.5764 0.5020 0.4466 0.4424 0.4465 0.4875 0.5445 0.8133
0.1642 0.2474 0.2478 0.2503 0.2641 0.2776 0.2873 0.2832 0.2823 0.2988 0.3243 0.3537 0.3923 0.4522 0.4886 0.4933 0.4680 0.4659 0.4361 0.4059 0.4204 0.4632 0.4842 0.4930 0.4828 0.4799 0.4702 0.4552 0.4475 0.4650 0.4786 0.4874 0.5204 0.5466 0.5533 0.5620 0.5862 0.6381 0.6377 0.6706 0.7372 0.7914 0.8295 0.8391 0.8340 0.8583 0.9017 0.8816 0.8829 0.8746 0.9108 0.9336 0.9883 0.9071 0.9450 0.9690 1.0155 1.0041 1.0514 1.1602 1.2304 1.2111 1.1874 1.1945 1.2085 1.2459 1.3664 1.5192 2.0907 5.3889 8.8580 13.9016 12.5139 2.9073 2.8911 2.9371 2.9944 3.0174 3.0821 2.9695 2.7363 2.6640 2.4125 2.0491 2.1525 2.2046 2.2997 1.9283 1.8606 1.7480 1.6655 1.5817 1.4318 1.4688 1.5160 1.4851 1.4546 1.5671 1.4178 1.3756 1.2568 1.2412 1.2927 1.2917 1.2986 1.2732 1.2809 1.2490 1.2534 1.2318 1.1791 1.1309 1.0910 1.0709 1.0754 1.0750 1.0271 0.9065 0.8293 0.6742 0.6177 0.4689 0.4593 0.4402 0.4189 0.4775 0.5714 0.6247 1.0018
0.1379 0.1133 0.2565 0.2403 0.2649 0.2556 0.2584 0.2857 0.3042 0.3204 0.3450 0.3791 0.4300 0.4850 0.4960 0.4863 0.4715 0.4504 0.4433 0.4354 0.4486 0.4820 0.4945 0.4849 0.4771 0.4596 0.4324 0.4082 0.4123 0.4398 0.4623 0.4931 0.5270 0.5604 0.5765 0.5946 0.6332 0.6691 0.6707 0.7031 0.7569 0.8259 0.8408 0.8896 0.8713 0.8980 0.9233 0.9254 0.9123 0.8979 0.9365 0.9890 1.0539 0.9933 1.0201 1.0761 1.1574 1.1939 1.2042 1.2849 1.3950 1.4046 1.3517 1.3529 1.3504 1.3287 2.3471 5.0440 9.9000 12.9511 13.4062 8.8229 3.1344 2.7681 2.8737 3.0226 2.9571 2.9384 3.0434 2.9231 2.6791 2.5921 2.4136 2.0338 2.0183 2.0377 2.2186 1.9378 1.7479 1.7281 1.5944 1.5603 1.4311 1.4425 1.4851 1.5370 1.4144 1.5312 1.4239 1.3733 1.2897 1.2183 1.2766 1.3465 1.3195 1.2885 1.2976 1.2702 1.2557 1.2109 1.1557 1.1059 1.0886 1.0961 1.0899 0.9858 0.9119 0.8064 0.6946 0.6097 0.5025 0.4328 0.4352 0.4597 0.4875 0.5719 0.6897 0.7409 1.2013
0.0457 0.0833 0.1727 0.2399 0.2493 0.2586 0.2738 0.2986 0.3179 0.3516 0.3926 0.4264 0.4802 0.5240 0.5266 0.5019 0.4713 0.4683 0.4413 0.4404 0.4828 0.5113 0.4978 0.4723 0.4445 0.4303 0.4134 0.4048 0.4097 0.4275 0.4579 0.4921 0.5375 0.5786 0.6063 0.6164 0.6444 0.6857 0.7196 0.7341 0.7517 0.8308 0.8616 0.9230 0.9401 0.9229 0.9723 0.9653 0.9976 0.9725 0.9820 1.0162 1.1164 1.1571 1.1821 1.2725 1.3665 1.4174 1.3878 1.4217 1.5425 1.5828 1.5153 1.8817 4.4667 8.2884 9.7804 12.8788 12.2219 9.8627 4.6319 3.2843 3.1308 2.7391 2.8688 3.0445 2.8927 2.9293 2.9261 2.8303 2.6225 2.5313 2.3701 2.0235 1.8924 1.8587 2.0952 1.9526 1.7163 1.6516 1.5727 1.5411 1.4235 1.4228 1.4727 1.5235 1.4246 1.4532 1.4487 1.3475 1.3034 1.2053 1.2811 1.3547 1.3385 1.3062 1.3091 1.2734 1.2350 1.1844 1.1302 1.0993 1.1137 1.0976 0.9855 0.9159 0.7744 0.6857 0.5807 0.5344 0.4587 0.4513 0.4955 0.5712 0.6443 0.7146 0.8240 0.8918 1.4090
0.0592 0.0965 0.1657 0.2221 0.2482 0.2672 0.2864 0.3113 0.3445 0.3787 0.4246 0.4602 0.4955 0.5381 0.5521 0.5294 0.5191 0.4684 0.4683 0.4729 0.5246 0.5518 0.5494 0.5030 0.4559 0.4172 0.4006 0.3869 0.3935 0.4341 0.4606 0.4862 0.5371 0.5827 0.6206 0.6545 0.6829 0.7112 0.7204 0.7579 0.7953 0.8586 0.8719 0.9524 0.9917 1.0051 1.0652 1.0861 1.1096 1.1010 1.0923 1.1393 1.2355 1.2984 1.3528 1.4903 1.6093 1.6211 1.6081 1.6907 2.7742 5.7767 9.0400 11.4834 12.3439 12.1111 11.8022 9.2128 5.4305 3.8804 3.5494 3.2962 3.0170 2.7720 2.7911 3.0000 2.8818 2.8506 2.7927 2.7546 2.5686 2.4030 2.3055 2.0683 1.7470 1.7905 1.9251 1.8916 1.6997 1.6327 1.5350 1.5075 1.4459 1.3978 1.4911 1.4833 1.4396 1.3605 1.4364 1.3479 1.3035 1.2496 1.2734 1.3434 1.3552 1.3228 1.2902 1.2634 1.2147 1.1598 1.1090 1.0969 1.0743 0.9808 0.9199 0.7843 0.6902 0.5976 0.5741 0.5420 0.5777 0.5616 0.6469 0.7450 0.8227 0.8606 0.9531 1.0931 1.8701
0.0506 0.1046 0.1822 0.2306 0.2580 0.2798 0.3167 0.3474 0.3803 0.4135 0.4526 0.4783 0.5214 0.5490 0.5697 0.5366 0.5073 0.4942 0.4838 0.5335 0.5670 0.5737 0.5695 0.5359 0.4564 0.4270 0.4187 0.4121 0.4154 0.4494 0.4888 0.5268 0.5619 0.6081 0.6476 0.6938 0.7164 0.7552 0.8355 0.7979 0.8186 0.9074 0.9563 0.9949 1.0741 1.1211 1.1746 1.2366 1.2693 1.2879 1.2686 1.2871 1.3598 1.4845 1.4919 1.6876 1.8493 2.1012 3.3145 7.0254 10.7147 12.0595 11.2010 10.0448 8.4895 6.3707 4.7468 4.3952 3.9409 3.7258 3.4582 3.3179 2.9389 2.7971 2.7281 2.9029 2.8614 2.7399 2.6337 2.5978 2.4822 2.3108 2.1905 2.0634 1.7372 1.7029 1.7516 1.8633 1.6961 1.5897 1.5258 1.4768 1.4483 1.4484 1.4502 1.4612 1.4039 1.3307 1.3974 1.3596 1.2956 1.2783 1.2697 1.3247 1.3546 1.3218 1.2739 1.2281 1.1804 1.1245 1.1036 1.0789 0.9949 0.9162 0.7962 0.7314 0.6424 0.6134 0.6302 0.6956 0.7357 0.7747 0.8102 0.9112 1.0060 1.0337 1.5966 3.1641 5.3679
0.0746 0.1252 0.1964 0.2502 0.2856 0.3196 0.3451 0.3842 0.4171 0.4502 0.4979 0.5292 0.5698 0.5998 0.5784 0.5583 0.4996 0.5026 0.5653 0.6140 0.6363 0.6140 0.5876 0.5565 0.5106 0.4593 0.4420 0.4427 0.4618 0.4851 0.5198 0.5619 0.6073 0.6630 0.6896 0.7404 0.7550 0.8185 0.8949 0.8819 0.8788 0.9642 1.0451 1.0796 1.1840 1.2532 1.3121 1.4152 1.4575 1.4856 1.4737 1.4569 1.4877 1.6364 1.6730 2.0782 3.4983 6.3373 10.4423 11.3795 10.1303 7.4968 4.9943 4.1305 4.2334 4.0151 4.0362 4.1321 3.6482 3.6707 3.4609 3.2701 2.9584 2.7889 2.6004 2.7536 2.7228 2.6334 2.5322 2.4162 2.3685 2.1778 2.1141 2.0513 1.6871 1.6537 1.6454 1.8143 1.6663 1.5685 1.5177 1.4548 1.4745 1.4402 1.4323 1.4172 1.3557 1.3317 1.3533 1.3558 1.2996 1.2924 1.2459 1.3093 1.3315 1.3074 1.2379 1.1887 1.1506 1.0928 1.0595 0.9827 0.9191 0.8188 0.7278 0.7083 0.6668 0.6983 0.7791 0.8730 0.9624 0.9941 0.9983 1.0578 1.1369 3.3703 5.5355 8.1056 11.9060
0.0854 0.1360 0.2072 0.2705 0.3054 0.3406 0.3770 0.4186 0.4563 0.4886 0.5423 0.5854 0.6184 0.6382 0.6180 0.5804 0.5569 0.5514 0.6421 0.6920 0.7016 0.6618 0.6011 0.5923 0.5674 0.5228 0.4871 0.4890 0.5104 0.5345 0.5788 0.6178 0.6528 0.7026 0.7480 0.8077 0.8387 0.8844 0.9535 0.9996 0.9888 1.0152 1.1541 1.1817 1.2852 1.3900 1.4551 1.5644 1.6035 1.6709 1.6370 1.6601 1.7599 2.5895 3.1618 5.8761 9.3617 10.9942 9.8391 6.8914 4.5456 3.9570 4.0555 3.9532 4.1994 3.9072 3.8335 3.8195 3.5056 3.5304 3.3942 3.2590 2.9284 2.7574 2.4967 2.5939 2.5763 2.4695 2.3849 2.3335 2.2210 2.1212 2.0351 1.9553 1.7116 1.6002 1.5551 1.7331 1.6401 1.5462 1.4791 1.4550 1.4544 1.4379 1.4026 1.3635 1.3532 1.3062 1.3222 1.3520 1.2906 1.2944 1.2546 1.2742 1.3066 1.2740 1.1837 1.1418 1.1016 1.0235 1.0101 0.9280 0.8708 0.7369 0.6631 0.7261 0.7946 0.8534 0.9676 1.0888 1.1673 1.2188 1.1847 1.3982 5.8659 8.1714 9.1833 9.2621 8.5084
0.0916 0.1477 0.2224 0.2804 0.3213 0.3600 0.4000 0.4449 0.4935 0.5273 0.5831 0.6115 0.6454 0.6637 0.6266 0.6154 0.5788 0.5973 0.6865 0.7417 0.7218 0.7059 0.6433 0.6042 0.6013 0.6013 0.5905 0.5923 0.6085 0.6184 0.6575 0.7066 0.7386 0.7912 0.8352 0.8925 0.9611 0.9966 1.0734 1.0954 1.1511 1.1610 1.2787 1.3091 1.4104 1.4885 1.5480 1.6891 1.7649 1.8882 2.0237 3.2911 5.3186 7.1056 9.2660 10.7312 10.0366 7.7670 4.7269 3.6644 3.7281 3.9776 4.1585 3.9792 4.1024 3.5797 3.5321 3.6252 3.3443 3.4828 3.3096 3.1688 2.9010 2.7025 2.4613 2.3905 2.3983 2.3688 2.2804 2.1953 2.1059 2.0395 1.9590 1.8475 1.7502 1.5300 1.5237 1.6154 1.6332 1.5122 1.4702 1.4140 1.4440 1.4114 1.3441 1.3198 1.3218 1.2888 1.2757 1.3426 1.2811 1.2713 1.2629 1.2472 1.2452 1.2183 1.1566 1.0881 1.0540 0.9787 0.9485 0.8293 0.7694 0.7222 0.6974 0.7985 0.9496 1.0843 1.1975 1.3105 1.3782 1.4478 2.2197 8.6950 9.6884 8.9704 7.5785 5.5946 4.5014
0.1038 0.1604 0.2329 0.2960 0.3402 0.3751 0.4170 0.4653 0.5170 0.5485 0.6096 0.6448 0.6534 0.6594 0.6627 0.6541 0.6199 0.6785 0.7432 0.7770 0.7454 0.6905 0.6801 0.6510 0.6348 0.6601 0.6991 0.7144 0.7416 0.7514 0.7775 0.8079 0.8511 0.9040 0.9686 1.0340 1.1091 1.1410 1.2444 1.2854 1.3031 1.3042 1.4572 1.4579 1.5009 1.5891 1.6596 1.7770 2.5472 3.9557 6.4413 8.9400 9.9533 10.2543 9.4396 7.7498 5.1851 4.1052 3.7267 3.6926 3.7075 4.0625 4.1461 3.9299 3.7233 3.2319 3.3744 3.3603 3.3619 3.2867 3.2554 3.0509 2.8404 2.6534 2.4442 2.1864 2.2900 2.2263 2.1737 2.0637 2.0192 1.9504 1.8863 1.7091 1.7536 1.5046 1.4722 1.5061 1.6118 1.4674 1.4479 1.3965 1.3496 1.4103 1.3077 1.2752 1.2620 1.2722 1.2661 1.3116 1.2958 1.2524 1.2317 1.1993 1.1679 1.1567 1.1078 1.0278 0.9848 0.9524 0.8616 0.7603 0.7030 0.7161 0.7700 0.9260 1.1451 1.2994 1.4183 1.5007 1.5553 3.3389 10.1376 9.3863 6.1320 4.0666 3.3060 3.6023 3.4623
0.1161 0.1735 0.2476 0.3088 0.3467 0.3881 0.4432 0.5033 0.5476 0.5763 0.6376 0.6747 0.6850 0.6689 0.6722 0.6834 0.7282 0.7361 0.7798 0.8093 0.7799 0.7623 0.7333 0.7276 0.7139 0.7272 0.7963 0.8391 0.8957 0.9128 0.9190 0.9404 1.0113 1.0623 1.1349 1.1918 1.2852 1.3300 1.4266 1.5298 1.4847 1.4539 1.5854 1.6198 1.5944 1.9061 2.6615 4.8812 7.1385 9.1923 9.8895 8.9359 7.7265 6.3042 4.8610 4.1122 3.9677 3.8335 3.7795 3.6921 3.7454 4.0966 3.9043 3.6654 3.4175 3.1513 3.1807 3.1004 3.2906 3.1584 3.1109 2.9045 2.7316 2.5440 2.4344 2.1175 2.0993 2.1774 2.0394 1.9548 1.9014 1.8568 1.7924 1.6411 1.7049 1.4823 1.4002 1.4364 1.5528 1.4133 1.4183 1.3430 1.3282 1.3587 1.2677 1.2259 1.2462 1.2659 1.2815 1.2604 1.2622 1.2222 1.1865 1.1370 1.1033 1.0848 1.0493 0.9693 0.9276 0.8512 0.7507 0.6838 0.6617 0.7715 0.9021 1.0982 1.3253 1.5054 1.6298 1.6917 4.7622 10.7459 7.7256 1.7670 2.0100 2.4994 3.0725 3.5742 3.1931
0.1125 0.1836 0.2653 0.3209 0.3773 0.4174 0.4705 0.5312 0.5891 0.6178 0.6676 0.7172 0.7165 0.7231 0.7387 0.7469 0.8397 0.8137 0.8033 0.7821 0.8219 0.8664 0.8420 0.8747 0.8528 0.8386 0.8988 0.9793 1.0540 1.0835 1.0835 1.0829 1.1520 1.2275 1.3069 1.3778 1.4497 1.5075 1.5463 1.6355 1.6563 1.6051 1.6339 2.7580 4.0465 6.3391 8.0852 9.3651 9.1826 8.6537 6.1859 4.4521 4.1487 3.9999 4.3085 3.9186 3.9097 3.7018 3.6840 3.6791 3.7229 3.8584 3.6164 3.6217 3.2409 3.1261 3.0068 2.9573 3.1034 3.0081 2.9848 2.8038 2.5763 2.4163 2.3541 2.0710 2.0123 2.0508 1.9223 1.8953 1.8205 1.7318 1.6945 1.5979 1.6025 1.4730 1.3347 1.3673 1.4346 1.4086 1.3440 1.3435 1.2482 1.2992 1.2301 1.2194 1.2136 1.2488 1.2221 1.2155 1.2262 1.1692 1.1153 1.0615 1.0399 1.0090 0.9833 0.8949 0.8360 0.7825 0.6862 0.6741 0.6977 0.8772 1.0881 1.2966 1.5416 1.7110 1.8197 6.7352 10.2072 5.6535 1.9205 1.7677 1.9166 2.3195 3.0282 3.6204 3.2792
0.1265 0.2048 0.2897 0.3574 0.4139 0.4558 0.5066 0.5735 0.6224 0.6579 0.7046 0.7438 0.7496 0.7893 0.8160 0.8271 0.9045 0.9071 0.8530 0.8003 0.7809 0.9139 0.9987 1.0427 1.0112 0.9724 1.0281 1.1346 1.2176 1.2710 1.2472 1.2273 1.2870 1.3475 1.4076 1.5146 1.5838 1.6897 1.7189 1.8669 1.9608 3.8016 5.7644 7.4328 9.0761 8.8550 8.6848 7.2527 5.9793 3.9357 3.8215 3.8421 4.0534 3.9600 4.1398 3.8758 3.7098 3.4960 3.5100 3.5806 3.5637 3.5935 3.5373 3.5866 3.0766 3.0596 2.8529 2.7416 2.8918 2.8843 2.7769 2.7115 2.4372 2.3002 2.2265 2.0398 1.8768 1.9591 1.8545 1.8182 1.7237 1.6492 1.6162 1.5580 1.5095 1.5005 1.2591 1.3103 1.3507 1.3636 1.2885 1.2948 1.2152 1.2359 1.2176 1.1826 1.1726 1.1979 1.1753 1.1678 1.1495 1.0831 1.0358 1.0072 0.9717 0.9288 0.8964 0.8109 0.7536 0.6990 0.6800 0.7223 0.8621 1.0231 1.2742 1.5118 1.7260 1.8998 5.9545 10.0335 6.6300 1.8973 1.8689 1.7221 1.6746 1.9342 2.7128 3.5390 3.5194
0.1429 0.2316 0.3251 0.3988 0.4627 0.5073 0.5669 0.6419 0.6954 0.7180 0.7383 0.7630 0.7783 0.8214 0.8526 0.8981 0.9820 1.0338 1.0088 0.9399 0.9023 0.9625 1.0846 1.1702 1.1804 1.1169 1.1334 1.2587 1.3659 1.4269 1.3753 1.3474 1.3791 1.4268 1.4975 1.6435 1.8476 2.3508 3.3855 5.9523 6.9097 8.6370 8.8883 8.4230 7.2975 6.3099 4.6013 3.6330 3.5295 3.5047 3.9907 4.0276 3.9610 3.8566 3.8737 3.6425 3.3765 3.2581 3.4259 3.3734 3.4187 3.4809 3.4620 3.4075 3.0727 2.9364 2.6909 2.5599 2.6523 2.6960 2.6622 2.5538 2.2985 2.1955 2.1162 1.9468 1.8194 1.8855 1.7738 1.7670 1.6248 1.6028 1.5456 1.5055 1.3887 1.4716 1.2288 1.2321 1.2508 1.3011 1.2236 1.2254 1.1818 1.1622 1.2211 1.1155 1.1171 1.1315 1.1055 1.0984 1.0462 1.0012 0.9721 0.9362 0.8868 0.8328 0.7911 0.7313 0.6645 0.6288 0.6568 0.7868 0.9789 1.2304 1.4894 1.6937 1.8704 3.6091 9.9789 6.8645 2.0013 1.8320 1.7243 1.5306 1.3361 1.3563 2.1150 3.3666 3.8808
0.1674 0.2715 0.3825 0.4596 0.5234 0.5768 0.6403 0.7131 0.7764 0.8042 0.8274 0.8276 0.8129 0.8578 0.9052 0.9665 1.0675 1.1799 1.2027 1.1490 1.0789 1.0865 1.1453 1.2106 1.3074 1.2951 1.2412 1.3716 1.4604 1.5379 1.5359 1.5594 1.6004 1.7047 1.8097 2.2461 3.6353 5.5944 8.3829 8.6343 8.5890 7.2699 5.7528 5.0242 3.1765 3.2056 3.4966 3.6067 3.4585 3.6302 4.2316 3.7976 3.7468 3.6082 3.5671 3.3985 3.1861 3.1367 3.2462 3.2994 3.2567 3.2503 3.3351 3.2841 2.9573 2.7437 2.6043 2.3768 2.4166 2.5731 2.4633 2.3999 2.1881 2.0489 1.9666 1.9179 1.7586 1.7711 1.7516 1.6584 1.5619 1.5095 1.5053 1.4041 1.3470 1.3543 1.2042 1.1399 1.1629 1.2046 1.1673 1.1947 1.1733 1.1368 1.1473 1.0604 1.0593 1.0446 1.0233 0.9827 0.9506 0.9330 0.8909 0.8348 0.7594 0.7259 0.6964 0.6408 0.5677 0.5666 0.6541 0.8561 1.1164 1.3915 1.6674 1.8679 1.9776 9.1006 8.0334 2.1570 1.9123 1.6915 1.4549 1.2590 1.0429 0.9448 1.2576 3.1257 4.2215
0.1699 0.3053 0.4375 0.5175 0.5822 0.6446 0.7118 0.7885 0.8580 0.8969 0.9403 0.9414 0.9318 0.9505 0.9960 1.0563 1.2088 1.3650 1.4935 1.4299 1.3327 1.2494 1.2152 1.1915 1.2852 1.4501 1.4875 1.6115 1.8457 1.9643 2.0440 2.0865 2.1837 2.3315 3.1684 5.5428 7.2364 8.3414 7.2209 4.6163 3.5410 3.1505 3.1074 3.1912 3.1798 3.1184 3.5710 3.6315 3.4253 3.7167 4.0910 3.6685 3.4065 3.3437 3.3989 3.3507 3.1162 3.0044 3.1178 3.1798 3.0805 3.0366 3.1233 3.1025 2.8578 2.5669 2.4802 2.2475 2.2222 2.3653 2.3169 2.2535 2.0892 1.9216 1.8275 1.8293 1.7176 1.6669 1.7133 1.5860 1.4783 1.4219 1.3825 1.3309 1.2824 1.2409 1.1796 1.0549 1.0645 1.1331 1.1547 1.1582 1.1476 1.0570 1.0615 1.0156 0.9701 0.9330 0.9039 0.8690 0.8562 0.8388 0.7567 0.6927 0.6477 0.6397 0.6275 0.5610 0.4911 0.5514 0.7080 0.9581 1.2648 1.5534 1.8052 2.0031 6.7764 10.0349 2.6371 1.9785 1.7372 1.4689 1.1986 1.0321 0.8214 0.8393 0.8418 1.9999 4.7160
0.2051 0.3308 0.4445 0.5285 0.5873 0.6541 0.7189 0.8045 0.8820 0.9712 1.0428 1.0974 1.1358 1.2009 1.2490 1.3220 1.5191 1.6952 1.8950 1.9781 2.0188 1.7434 1.4556 1.3280 1.3228 1.6137 1.8780 2.0179 2.0965 2.2666 2.3943 2.4830 2.7714 4.4787 6.8067 7.8394 7.5200 5.2727 3.2237 2.7038 2.9880 3.0456 3.1131 3.0493 3.2531 3.1935 3.5373 3.6306 3.3993 3.6452 3.8100 3.5849 3.2835 3.2450 3.2901 3.2370 3.0143 2.9324 2.9288 3.0015 2.9316 2.8324 2.8878 2.8970 2.7224 2.4362 2.3779 2.0514 2.0912 2.1913 2.1536 2.0848 1.9908 1.8243 1.7334 1.7442 1.6278 1.5889 1.6429 1.4850 1.3965 1.3253 1.2784 1.2132 1.2144 1.1282 1.1440 0.9776 1.0215 1.0879 1.1662 1.1235 1.0697 1.0111 0.9760 0.9130 0.8229 0.7878 0.7688 0.7503 0.7532 0.7212 0.6445 0.6002 0.5526 0.5187 0.5162 0.4935 0.4751 0.5623 0.7760 1.0687 1.3921 1.7152 1.9074 4.3667 10.3098 3.5789 2.1171 1.8132 1.5059 1.2287 0.9840 0.8608 0.7899 0.8088 0.8750 1.1260 4.8556
0.1959 0.3275 0.4483 0.5252 0.5947 0.6533 0.7406 0.8247 0.9296 0.9922 1.1017 1.1938 1.3013 1.4200 1.5548 1.7312 1.8690 2.0516 2.1528 2.3182 2.4351 2.4877 2.1896 2.0147 1.9195 2.0765 2.2419 2.3030 2.3399 2.3913 2.4663 3.2692 5.2097 7.5486 7.5836 5.7988 3.4234 2.4325 2.6768 2.7706 2.9647 2.9346 3.0922 2.9353 3.2861 3.2093 3.4108 3.4859 3.3790 3.4715 3.5450 3.5068 3.2252 3.0851 3.0886 3.1293 2.9146 2.7356 2.8092 2.8299 2.7853 2.6458 2.6648 2.6692 2.5715 2.3311 2.2140 1.9993 1.9309 2.0188 2.0714 1.9503 1.8870 1.7294 1.6599 1.6085 1.5883 1.4976 1.4954 1.4033 1.2966 1.1787 1.2050 1.1132 1.0995 1.0564 1.0819 0.9661 1.0166 1.0808 1.1270 1.0561 0.9910 0.9261 0.8521 0.7610 0.6901 0.6486 0.6276 0.6405 0.6419 0.6228 0.5643 0.5275 0.4829 0.4395 0.4761 0.5039 0.5183 0.6432 0.8892 1.1558 1.4584 1.7736 2.3494 9.8171 5.4063 2.0422 1.9029 1.5720 1.2811 1.0404 0.8596 0.7997 0.8754 0.8599 1.0648 1.5696 4.8061
0.1999 0.3290 0.4530 0.5403 0.6186 0.6715 0.7380 0.8528 0.9360 1.0295 1.1159 1.2194 1.3665 1.5495 1.6314 1.6926 1.7114 1.7324 1.8209 1.9239 2.1782 2.5384 2.7036 2.6744 2.5907 2.3591 2.3473 2.4242 2.5955 2.7460 4.4801 6.2953 7.6592 6.6115 3.9022 2.7403 2.4392 2.3963 2.7373 2.8026 2.7697 2.8056 3.0883 2.7632 3.2335 3.1512 3.2422 3.2423 3.2973 3.3717 3.3430 3.4011 3.0998 2.9545 2.9060 2.9340 2.7979 2.6194 2.5866 2.6695 2.6435 2.5039 2.4194 2.5388 2.3233 2.2423 2.0693 1.8867 1.8512 1.8722 1.9850 1.8488 1.7751 1.6255 1.5890 1.4950 1.4893 1.3965 1.3721 1.2897 1.1756 1.0940 1.0866 1.0497 1.0088 0.9887 1.0104 0.9863 0.9818 1.0393 1.0145 0.9486 0.8964 0.8450 0.7383 0.6726 0.5818 0.5235 0.5446 0.5698 0.5661 0.5967 0.6213 0.5533 0.5387 0.5439 0.5729 0.6288 0.6574 0.7497 0.9930 1.2858 1.6211 2.7289 9.2536 7.8237 2.3212 1.8353 1.6484 1.3699 1.1063 0.9271 0.8310 0.8267 0.9848 1.0700 1.5391 2.3162 4.6034
0.1849 0.3189 0.4506 0.5297 0.5991 0.6661 0.7401 0.8509 0.9510 1.0324 1.1035 1.2168 1.3367 1.3949 1.4214 1.4028 1.4454 1.4662 1.5039 1.6044 1.7427 1.9594 2.3708 2.2971 2.3879 2.5088 2.6104 2.7670 2.9307 4.9321 6.9123 7.1086 5.4995 2.6468 2.5825 2.4499 2.4111 2.4470 2.6831 2.7045 2.5645 2.9300 2.8141 2.7397 3.0402 3.1854 3.0380 3.0499 3.1993 3.1537 3.1221 3.2714 2.9885 2.7353 2.7642 2.7340 2.6469 2.4730 2.4536 2.4418 2.4964 2.3468 2.2553 2.3026 2.2043 2.0765 1.9406 1.8474 1.7509 1.7782 1.8734 1.7706 1.6298 1.5491 1.4759 1.3744 1.3622 1.2873 1.2255 1.2147 1.0753 0.9816 0.9868 0.9878 0.9435 0.9668 0.9594 0.9469 0.8969 0.9415 0.9344 0.8906 0.8702 0.8023 0.6665 0.5914 0.5096 0.5144 0.5695 0.6305 0.6836 0.7627 0.7739 0.7599 0.7406 0.7526 0.7714 0.7940 0.8259 0.9028 1.0905 1.7226 3.7587 9.0984 7.3900 2.5342 2.0556 1.6264 1.4208 1.2364 1.0243 0.8856 0.8968 0.9718 1.2106 1.5358 1.9605 2.0072 4.5116
0.1596 0.2919 0.4308 0.5118 0.5920 0.6633 0.7671 0.8803 0.9650 1.0650 1.2076 1.2816 1.2624 1.2927 1.2878 1.2734 1.2924 1.3087 1.3696 1.4586 1.5290 1.6196 1.7656 2.0246 2.1688 2.4129 2.7853 3.0436 5.0606 6.6498 6.4512 4.1778 2.4638 2.5053 2.5406 2.4452 2.4162 2.4216 2.5432 2.5794 2.5228 2.7144 2.7053 2.6979 2.8282 2.9862 2.9258 2.8843 2.9072 2.9669 3.0028 2.9809 2.8288 2.5956 2.5560 2.4924 2.5088 2.2976 2.2528 2.2922 2.3366 2.2342 2.1046 2.1323 2.0043 1.9627 1.8411 1.7788 1.6851 1.6508 1.7406 1.6848 1.4990 1.4751 1.3356 1.2575 1.2515 1.1731 1.1442 1.1128 0.9693 0.9313 0.9262 0.9250 0.9025 0.9464 0.9069 0.8615 0.7838 0.8361 0.9017 0.9169 0.8260 0.7851 0.7088 0.6354 0.6261 0.6221 0.7307 0.8354 0.9197 0.9771 1.0015 1.0394 1.0091 1.0013 0.9674 0.9649 0.9861 1.0300 2.4816 5.4495 8.7426 7.1183 2.8008 2.1691 1.8644 1.5169 1.2761 1.1547 0.9808 0.9629 1.0028 1.2539 1.5720 1.8819 1.8879 2.3827 4.2860
0.1045 0.2615 0.4376 0.5162 0.5952 0.6872 0.7912 0.9140 1.0205 1.1317 1.1975 1.1831 1.1820 1.2059 1.1735 1.1004 1.0710 1.0987 1.1325 1.2288 1.3218 1.4070 1.4788 1.6463 2.0220 2.7569 3.4437 4.7575 6.3213 6.1348 3.7921 2.4932 2.4423 2.4679 2.5160 2.4510 2.4201 2.4207 2.4513 2.5053 2.4354 2.5199 2.6070 2.5953 2.6411 2.8590 2.7385 2.6673 2.7429 2.7475 2.7356 2.7555 2.6123 2.3750 2.3396 2.2816 2.2794 2.1301 2.1275 2.1243 2.1152 2.2534 1.9726 1.9190 1.8925 1.8674 1.7233 1.6672 1.6618 1.5374 1.6093 1.5746 1.3810 1.3547 1.2352 1.1492 1.1273 1.1237 1.0368 1.0340 0.9111 0.9013 0.8797 0.8833 0.8900 0.8663 0.7883 0.7514 0.6739 0.7536 0.9067 0.9170 0.8664 0.8283 0.8455 0.8158 0.8358 0.8770 0.9457 1.0730 1.1694 1.2186 1.2460 1.2780 1.2182 1.1677 1.1082 1.5636 3.0387 4.7897 6.8648 8.2869 6.4967 3.1010 2.4509 1.9166 1.7577 1.4645 1.1833 1.0461 1.0288 1.0943 1.2699 1.5388 1.7651 1.9266 1.9653 2.5857 4.0453
0.1047 0.2614 0.4420 0.5167 0.5931 0.6995 0.8158 0.9173 0.9941 1.0692 1.0832 1.0207 0.9790 0.9946 0.9339 0.8818 0.9093 0.9478 1.0065 1.0920 1.2037 1.2868 1.3924 1.6150 2.6694 3.6933 4.3568 6.0668 5.8897 3.5630 2.5730 2.4900 2.4206 2.4396 2.4970 2.4004 2.3961 2.3611 2.3651 2.3953 2.3822 2.3970 2.4206 2.5379 2.4594 2.6365 2.5766 2.4782 2.4863 2.5055 2.5331 2.4062 2.3777 2.1766 2.0933 2.0380 2.0589 1.9968 1.9778 1.9950 1.9841 2.0392 1.9150 1.7687 1.7579 1.7525 1.6265 1.5532 1.5790 1.4735 1.4317 1.4421 1.2726 1.2466 1.1405 1.0785 1.0331 1.0350 1.0023 0.9297 0.9098 0.8610 0.8440 0.8227 0.7874 0.7463 0.7204 0.7043 0.6675 0.8083 0.8919 0.9759 1.0208 1.0581 1.0631 1.0910 1.0989 1.1304 1.2100 1.3256 1.4419 1.5145 1.5012 2.1344 2.8038 3.6007 4.9104 6.0723 7.4881 7.7970 7.4750 5.2445 3.4527 2.7014 2.2579 1.8101 1.6356 1.3990 1.1343 1.0232 1.1313 1.3014 1.4997 1.7370 1.9005 2.0044 2.0297 2.8542 3.7390
0.1314 0.2811 0.4469 0.5284 0.6073 0.7121 0.8088 0.9048 0.9679 0.9340 0.9250 0.7622 0.7245 0.7677 0.7919 0.8109 0.8624 0.9518 1.0138 1.1450 1.2114 1.2919 1.4837 2.0616 3.7595 4.8040 5.4530 6.0064 3.6642 2.4329 2.5100 2.4186 2.4268 2.3848 2.4403 2.3355 2.3619 2.3072 2.2865 2.2811 2.2962 2.2193 2.3987 2.3643 2.2749 2.4461 2.3450 2.2829 2.2354 2.2432 2.2445 2.1624 2.1041 1.9607 1.8653 1.8300 1.8973 1.8641 1.8412 1.8771 1.7852 1.8926 1.7681 1.6564 1.6347 1.6259 1.5222 1.4390 1.4774 1.3722 1.3183 1.3125 1.1541 1.1420 1.0831 1.0310 0.9475 0.9670 0.9328 0.8930 0.8760 0.8335 0.7657 0.7063 0.6793 0.6404 0.6562 0.7086 0.6749 0.8147 1.0207 1.1290 1.2552 1.3089 1.3432 1.3910 1.3843 1.4182 1.4291 2.2846 3.1456 3.8390 4.4587 5.2565 6.3414 7.0242 7.3458 7.2989 6.4395 5.5356 3.4482 2.8085 2.8144 2.6492 2.0649 1.7583 1.4950 1.3168 1.1021 1.0875 1.2638 1.5359 1.7259 1.8890 1.9485 2.0565 2.0346 2.6310 3.4984
0.1611 0.3080 0.4593 0.5328 0.6038 0.6906 0.7963 0.8712 0.8944 0.8487 0.7630 0.5977 0.6120 0.6901 0.7508 0.8270 0.9199 1.0221 1.1064 1.1970 1.2855 1.3991 1.9065 3.1158 5.1697 4.7741 5.6581 3.5240 2.5504 2.4860 2.4885 2.4071 2.3968 2.2848 2.3410 2.2661 2.2589 2.2318 2.1948 2.1760 2.2096 2.0802 2.2717 2.1780 2.1621 2.1906 2.1584 2.0784 1.9601 1.9593 2.0061 1.8991 1.8572 1.7796 1.6569 1.6869 1.7262 1.7296 1.6453 1.7521 1.6580 1.7099 1.6461 1.5506 1.4772 1.4859 1.4412 1.3307 1.3481 1.2885 1.1888 1.1934 1.0574 1.0374 1.0665 0.9371 0.9026 0.9163 0.9035 0.8489 0.8231 0.7245 0.6311 0.5945 0.5838 0.5701 0.6531 0.7099 0.7223 0.8812 1.2704 1.2860 1.4713 1.5731 1.6208 1.7620 1.9100 3.2454 4.3200 5.3413 5.8631 6.0776 6.1521 6.1778 6.0362 5.8506 4.9763 3.4986 2.9311 3.0290 2.8425 2.5149 2.5241 2.5626 2.0382 1.6415 1.3635 1.2570 1.1515 1.2042 1.4703 1.7390 1.8345 1.9235 1.9320 1.9461 1.4060 1.6040 3.8337
0.1716 0.3276 0.4761 0.5368 0.5916 0.6902 0.7760 0.8397 0.8352 0.7503 0.6161 0.5420 0.6592 0.7641 0.8377 0.9175 1.0006 1.1023 1.1833 1.3086 1.4065 1.7888 2.5295 4.2665 5.0859 5.5093 3.9057 2.1140 2.4094 2.4280 2.5013 2.4364 2.3345 2.1758 2.2007 2.1342 2.1536 2.1450 2.0950 2.1000 2.0407 2.0087 2.0684 1.9795 1.9975 1.9845 1.9488 1.8582 1.7242 1.7039 1.7388 1.7239 1.6200 1.5824 1.4947 1.5346 1.5344 1.5379 1.5474 1.5780 1.5137 1.5441 1.5195 1.4475 1.3221 1.3719 1.3258 1.2296 1.2223 1.1942 1.1048 1.0748 0.9792 0.9800 1.0020 0.8869 0.8649 0.8755 0.8424 0.7619 0.7018 0.6082 0.5308 0.5114 0.5715 0.6368 0.7126 0.8101 0.7691 0.9947 1.5918 1.6552 1.7592 1.8332 2.3745 3.5893 5.0308 5.6545 5.6857 5.2238 4.8546 4.5800 4.3298 3.9530 4.0759 3.6742 3.2655 2.7201 2.6888 2.7166 2.7582 2.4847 2.4519 2.3072 1.9467 1.5510 1.2558 1.1963 1.2415 1.3641 1.6568 1.8365 1.8593 1.8231 1.8022 1.3329 1.7931 1.8752 3.6669
0.2216 0.3665 0.4948 0.5674 0.6400 0.7275 0.7966 0.8295 0.8249 0.7286 0.7425 0.7207 0.7975 0.9126 0.9546 1.0230 1.0721 1.1839 1.2783 1.4215 1.7827 2.4828 3.2670 5.0238 5.7360 4.7823 2.2115 2.1499 2.2923 2.3704 2.4602 2.4029 2.2958 2.1115 2.0278 1.9800 2.0077 2.0153 1.9911 1.9448 1.9165 1.8980 1.8836 1.7984 1.7924 1.7496 1.7824 1.6194 1.5237 1.4845 1.5075 1.5355 1.4350 1.4029 1.3337 1.3584 1.3617 1.3675 1.3826 1.4179 1.3817 1.3458 1.3644 1.3545 1.1802 1.2263 1.2465 1.1193 1.1251 1.0980 1.0590 0.9434 0.9352 0.9266 0.9463 0.8407 0.8520 0.8043 0.7300 0.6689 0.6152 0.5214 0.5084 0.5905 0.7041 0.8273 0.9155 0.9871 0.9004 0.9870 1.8691 2.1660 1.9727 3.3798 4.6410 5.0918 4.7640 4.0051 3.0398 2.7198 2.6016 2.6513 2.9643 3.5667 3.8625 3.2953 2.8754 2.6101 2.5331 2.5393 2.5077 2.5128 2.2393 2.1275 1.8467 1.5080 1.2186 1.2191 1.3613 1.5934 1.7389 1.8362 1.7933 1.6662 1.4036 1.9092 2.0218 2.4058 3.3155
0.2754 0.4193 0.5379 0.6099 0.6691 0.7556 0.8046 0.8341 0.8392 0.9120 0.9576 1.0186 1.0355 1.1241 1.1042 1.1807 1.2326 1.3693 1.5006 1.8647 2.4329 3.2454 4.3096 5.8162 5.1969 2.5267 2.2058 2.1442 2.1782 2.2573 2.4033 2.3886 2.2593 2.0228 1.9107 1.8484 1.8645 1.8687 1.8247 1.8237 1.7854 1.7310 1.7264 1.6639 1.6018 1.5292 1.5907 1.4530 1.3500 1.3095 1.2908 1.3828 1.2605 1.2374 1.2085 1.1786 1.1891 1.2209 1.2269 1.2456 1.2360 1.1731 1.2033 1.2393 1.0686 1.1212 1.1466 1.0202 1.0527 1.0131 0.9446 0.8862 0.8728 0.8693 0.8963 0.8100 0.7592 0.6945 0.6482 0.6101 0.5729 0.6067 0.6604 0.7727 0.9404 1.1087 1.1683 1.1536 1.1256 0.7215 2.2432 2.6669 4.5460 4.3513 4.0574 3.1768 2.7513 2.6248 2.5253 2.4640 2.4068 2.5278 3.0827 3.6182 3.5226 3.1571 2.8157 2.4926 2.3607 2.3860 2.3416 2.3078 2.1163 1.9072 1.6933 1.4388 1.2980 1.3309 1.5531 1.6294 1.7154 1.8297 1.4895 1.5924 1.8488 2.1631 2.3767 2.5950 2.7303
0.3337 0.4812 0.5865 0.6425 0.6974 0.7455 0.7802 0.8152 0.8450 1.0009 1.1625 1.2800 1.2997 1.3662 1.3480 1.4110 1.5086 1.5648 1.9886 2.6164 2.9990 4.7297 5.7268 5.2942 2.6419 2.4598 2.2777 2.1036 2.0402 2.1075 2.2520 2.3334 2.1769 1.9434 1.7907 1.7017 1.7257 1.7389 1.6755 1.6592 1.6638 1.5965 1.5065 1.5783 1.4348 1.3465 1.3998 1.3024 1.2275 1.1278 1.1375 1.1753 1.1158 1.1078 1.0636 1.0041 1.0618 1.0640 1.0807 1.0867 1.0855 1.0427 1.0734 1.1201 0.9972 1.0256 1.0348 0.9673 0.9759 0.9235 0.8562 0.8210 0.8060 0.8199 0.7991 0.7321 0.6387 0.6108 0.6192 0.5942 0.6948 0.8074 0.9271 1.0560 1.2326 1.4027 1.3841 1.3518 1.6412 0.3239 2.6363 4.1003 2.6159 2.7432 2.6208 2.5085 2.4942 2.4817 2.3624 2.2661 2.2621 2.4974 3.1488 3.4842 3.1336 3.0738 2.7329 2.4219 2.1889 2.1865 2.1371 2.0470 1.9357 1.6813 1.4990 1.3773 1.4004 1.4395 1.5417 1.6350 1.8190 1.4228 1.7327 1.6706 2.3058 2.4402 2.4494 2.3441 1.9031
0.3846 0.5312 0.6163 0.6607 0.6909 0.7058 0.7189 0.7476 0.8618 1.0292 1.2168 1.3379 1.4481 1.5203 1.5437 1.5761 1.5184 2.2254 2.9425 3.5237 4.8221 5.7710 4.4784 2.5540 2.4608 2.3707 2.2530 2.0326 1.9225 1.9157 2.0673 2.1544 2.1009 1.8604 1.6910 1.5581 1.5900 1.6059 1.5196 1.5169 1.5103 1.4796 1.3678 1.3970 1.2896 1.2238 1.1897 1.1576 1.0894 0.9809 0.9792 1.0193 0.9778 0.9615 0.9294 0.8776 0.9278 0.9089 0.9464 0.9367 0.9539 0.9534 0.9487 1.0110 0.9295 0.9283 0.9319 0.9017 0.8963 0.8530 0.7879 0.7595 0.7438 0.7238 0.6967 0.6470 0.5523 0.5147 0.6280 0.7508 0.8840 1.0521 1.2187 1.3685 1.5108 1.6644 1.5699 2.7528 3.2454 0.4339 1.8254 3.3973 2.5632 2.5017 2.4701 2.3473 2.3351 2.2363 2.1837 2.0729 2.0807 2.4678 3.0520 3.2048 2.9181 2.8597 2.6055 2.2771 2.0216 1.9629 1.9025 1.7846 1.7246 1.4891 1.3406 1.3996 1.4775 1.4516 1.5993 1.6903 1.5238 1.8765 1.8211 2.3503 2.5029 2.3270 1.7269 1.6524 1.7925
0.4489 0.6000 0.6734 0.7135 0.7183 0.7075 0.6853 0.7477 0.9186 1.1226 1.2522 1.3574 1.4680 1.5751 1.5744 1.7011 2.9217 3.8741 4.9122 5.3920 5.2703 3.9163 2.3829 2.3395 2.3211 2.2631 2.1557 1.9522 1.8103 1.7095 1.8501 1.9896 1.9457 1.7493 1.5965 1.4377 1.4280 1.4631 1.3961 1.3596 1.3540 1.3309 1.2459 1.2177 1.1445 1.0758 1.0096 1.0082 0.9255 0.8435 0.8491 0.8488 0.8683 0.8333 0.8121 0.7522 0.7937 0.7819 0.7991 0.8365 0.8329 0.8600 0.8305 0.8913 0.8819 0.8221 0.8628 0.8433 0.8251 0.7716 0.7441 0.7038 0.6167 0.6214 0.6007 0.5829 0.4990 0.5756 0.7188 0.9081 1.1212 1.3335 1.5074 1.6483 1.6957 2.2602 3.6549 4.2695 5.8159 1.2649 0.8835 2.7192 2.4562 2.4209 2.2633 2.1554 2.0831 2.0089 1.9457 1.8473 1.9969 2.3457 2.8035 2.9198 2.6920 2.5839 2.4087 2.0956 1.8588 1.7267 1.6527 1.5716 1.4898 1.3654 1.2783 1.3459 1.4356 1.6024 1.3969 1.6677 1.9146 1.9347 2.4097 2.5238 2.0678 1.3379 1.1927 1.4455 1.8296
0.5477 0.7158 0.7693 0.7746 0.7682 0.7682 0.7619 0.8499 1.0157 1.1914 1.3369 1.4607 1.5406 1.6267 2.0716 4.0222 5.1269 5.2052 4.7045 3.6844 2.9863 2.3538 2.2468 2.1641 2.1497 2.0422 2.0151 1.8030 1.7072 1.5403 1.6316 1.7536 1.8007 1.6139 1.4596 1.3203 1.2873 1.2785 1.2546 1.1993 1.1675 1.1886 1.1049 1.0766 0.9643 0.9286 0.8503 0.8556 0.7635 0.7281 0.7067 0.7085 0.7570 0.7176 0.7023 0.6643 0.6589 0.6686 0.6899 0.7377 0.7163 0.7470 0.7406 0.8052 0.7962 0.7842 0.8116 0.7778 0.7432 0.7023 0.6592 0.5811 0.5389 0.5344 0.5487 0.5647 0.5861 0.6438 0.8369 1.1013 1.3736 1.6128 1.7548 1.6727 2.9617 4.2213 4.2587 3.7651 3.3395 2.4309 0.6538 2.0530 2.5710 2.2468 2.0103 1.9237 1.8230 1.7370 1.7070 1.7053 1.8743 2.1198 2.5097 2.6718 2.4795 2.3042 2.1581 1.8834 1.6613 1.5109 1.4748 1.4059 1.3159 1.2611 1.1646 1.2978 1.4886 1.4227 1.7721 1.6666 2.1252 2.5588 2.4396 1.7558 1.2424 1.1407 1.1442 1.1764 1.8607
0.6917 0.8660 0.8730 0.8501 0.8416 0.8354 0.8544 0.9843 1.1395 1.2726 1.3977 1.5371 1.8635 2.3965 3.9096 4.9474 3.9330 2.9840 2.3356 2.2308 2.3047 2.1362 2.1101 1.9860 1.9181 1.8194 1.8236 1.6475 1.5578 1.4017 1.4302 1.5498 1.5979 1.4677 1.3448 1.2040 1.1261 1.1176 1.0812 1.0315 1.0084 1.0216 0.9672 0.8786 0.8819 0.7908 0.6899 0.7120 0.6398 0.6106 0.5844 0.5966 0.6394 0.6099 0.6154 0.5719 0.5410 0.5816 0.5968 0.6307 0.6258 0.6659 0.6806 0.7341 0.7582 0.7472 0.7520 0.7110 0.6649 0.6399 0.5891 0.5047 0.4540 0.5401 0.6053 0.6649 0.7333 0.8167 1.0233 1.2804 1.5547 1.6898 1.6064 3.8230 4.4530 3.5309 2.8652 2.2362 2.3885 2.5507 1.7422 0.8081 2.1797 1.9416 1.7613 1.6717 1.5602 1.5281 1.5261 1.6141 1.7346 1.9814 2.3070 2.3816 2.2225 2.0202 1.9001 1.6693 1.4717 1.3302 1.3151 1.2246 1.1661 1.1601 1.1593 1.2149 1.4758 1.6712 1.7705 2.2684 2.6023 2.2229 1.4975 1.2579 1.1321 1.1132 1.2000 1.4809 1.6166
0.9219 1.0482 0.9709 0.9297 0.9122 0.9329 1.0041 1.1508 1.2822 1.4130 1.5641 1.8967 2.0944 3.2257 4.5317 3.8293 2.4989 2.0064 2.2118 2.1199 2.0422 1.9435 1.9545 1.7866 1.6899 1.6061 1.5928 1.4887 1.4040 1.2775 1.2407 1.3556 1.3999 1.3228 1.1928 1.0830 0.9896 0.9541 0.9310 0.8788 0.8436 0.8548 0.8129 0.7232 0.7311 0.6580 0.5676 0.5680 0.5317 0.5137 0.4811 0.4926 0.5320 0.5201 0.5191 0.4916 0.4624 0.4942 0.5021 0.5366 0.5460 0.6222 0.6512 0.6906 0.7014 0.7096 0.6596 0.6418 0.5896 0.5883 0.5218 0.5107 0.5214 0.6126 0.7322 0.8141 0.8958 1.0241 1.2083 1.4044 1.3395 1.9777 4.0443 4.0464 1.9266 2.1123 2.4341 2.1993 2.1290 2.2081 1.9924 1.1991 1.8560 1.6208 1.5421 1.4187 1.3675 1.3832 1.4124 1.5675 1.7169 1.9404 2.0885 2.0453 1.9852 1.7505 1.6391 1.4610 1.3231 1.1947 1.1041 1.1067 1.1069 0.8792 1.0999 1.4059 1.2738 1.9363 2.2657 2.5792 1.9752 1.4201 1.2213 1.1969 1.1785 1.2605 1.3493 1.2548 1.3009
1.0139 1.1659 1.0652 0.9923 0.9858 1.0363 1.1115 1.2615 1.4145 1.5416 1.8024 1.9189 1.9714 3.6740 4.6175 2.7480 1.7338 1.9392 2.1815 2.0139 1.8267 1.7448 1.7550 1.5912 1.4860 1.3700 1.3824 1.3458 1.2418 1.1581 1.0864 1.1608 1.2188 1.1592 1.0441 0.9577 0.8533 0.8098 0.7763 0.7241 0.6821 0.6759 0.6436 0.5842 0.5664 0.5260 0.4638 0.4447 0.4434 0.4163 0.4007 0.4113 0.4212 0.4405 0.4312 0.4146 0.3998 0.4120 0.4364 0.4614 0.5139 0.5689 0.5955 0.6230 0.6272 0.6440 0.5970 0.5667 0.5790 0.5353 0.5682 0.6074 0.6836 0.7740 0.9099 1.0258 1.1253 1.2438 1.2550 1.5543 2.6777 4.0323 3.5051 2.0934 2.1164 2.0487 2.1438 2.0846 1.9354 1.9355 1.8350 1.5278 1.4098 1.4412 1.3129 1.2768 1.2331 1.2976 1.3998 1.5557 1.7185 1.8443 1.8476 1.7836 1.7318 1.5121 1.4331 1.2719 1.1877 1.1311 1.0044 1.0036 1.0668 0.8826 0.5948 1.3419 1.7795 2.3488 2.4230 1.8421 1.3548 1.2855 1.1694 1.2048 1.2232 1.1604 1.0841 1.0334 1.1038
1.1277 1.3108 1.2458 1.2106 1.1718 1.2202 1.2919 1.3774 1.4726 1.6339 1.7757 1.6248 2.1773 4.3974 3.9682 1.8584 1.6781 1.9172 2.0543 1.9342 1.6666 1.5163 1.5095 1.4051 1.2866 1.1911 1.1750 1.1733 1.0701 1.0176 0.9446 0.9926 1.0235 0.9997 0.9059 0.8259 0.7232 0.6632 0.6180 0.5693 0.5304 0.5127 0.4949 0.4436 0.4314 0.4036 0.3718 0.3454 0.3513 0.3212 0.3280 0.3295 0.3314 0.3612 0.3612 0.3633 0.3494 0.3644 0.3858 0.4399 0.4623 0.4871 0.5115 0.5399 0.5832 0.5953 0.5415 0.5582 0.5584 0.5859 0.6585 0.7708 0.8743 0.9684 1.0891 1.2536 1.2649 1.3776 2.3062 3.5275 3.6827 2.6751 2.0322 2.1449 2.0094 1.9231 1.8985 1.8724 1.7427 1.6515 1.5888 1.4628 1.1918 1.2018 1.1830 1.1632 1.1924 1.2550 1.4021 1.5271 1.6709 1.6729 1.5808 1.5749 1.4851 1.3369 1.2789 1.1792 1.0368 1.0093 1.0725 0.9668 0.6405 0.7658 0.6504 1.6643 2.3099 2.2042 2.0141 1.3836 1.2418 1.1571 1.0923 1.1022 1.0567 0.9631 0.9285 0.9381 0.9894
1.2842 1.4601 1.3540 1.3523 1.4509 1.5222 1.5536 1.5296 1.5495 1.6607 1.4616 1.9274 3.2686 4.6502 2.6542 1.6636 1.6955 1.7933 1.9066 1.8251 1.5783 1.3750 1.3138 1.2465 1.1211 1.0402 0.9860 0.9511 0.9437 0.8777 0.8087 0.8190 0.8466 0.8391 0.7557 0.6847 0.6013 0.5201 0.4753 0.4332 0.3904 0.3793 0.3657 0.3368 0.3180 0.3369 0.2887 0.2635 0.2716 0.2381 0.2665 0.2640 0.2628 0.3057 0.3262 0.3290 0.3261 0.3383 0.3774 0.3821 0.3828 0.4168 0.4599 0.4899 0.5554 0.5745 0.5359 0.5555 0.6272 0.7035 0.7978 0.9147 1.0376 1.1471 1.2503 1.2826 1.9314 3.0367 3.4581 2.9390 1.9232 1.9832 2.0749 1.9612 1.8730 1.7194 1.6679 1.6536 1.5041 1.3993 1.3282 1.2868 1.1320 1.0095 1.0739 1.1200 1.1674 1.2475 1.3855 1.4643 1.5201 1.4928 1.3671 1.3623 1.3012 1.2738 1.0505 1.0603 1.0110 0.9716 0.7990 0.8895 0.7234 0.6005 0.6287 2.1594 2.5285 2.0039 1.2126 1.1492 1.0175 1.0323 0.9445 0.8975 0.9550 0.9369 0.9471 0.7811 0.7067
1.1955 1.3325 1.2546 1.3014 1.4003 1.5286 1.6213 1.5584 1.5996 1.4451 1.5945 3.1050 4.3970 3.5732 1.8770 1.7088 1.6266 1.6412 1.6948 1.6458 1.4397 1.2187 1.1308 1.0934 0.9895 0.9093 0.8388 0.7940 0.7917 0.7304 0.6800 0.6592 0.6770 0.6701 0.6112 0.5419 0.4784 0.4019 0.3551 0.3179 0.2833 0.2736 0.2630 0.2494 0.2292 0.2500 0.2128 0.1980 0.2040 0.2028 0.2111 0.2191 0.2500 0.3043 0.3055 0.3122 0.3223 0.3095 0.3166 0.3346 0.3457 0.3780 0.4248 0.4705 0.5146 0.5522 0.5394 0.6038 0.7044 0.8151 0.9426 1.0651 1.1969 1.3116 1.5855 2.6473 3.1217 2.9669 1.9433 1.7611 1.8423 1.8217 1.8875 1.7833 1.6587 1.5261 1.4462 1.3912 1.2965 1.1812 1.1024 1.1496 1.0744 0.8906 1.0129 1.0880 1.1568 1.2159 1.3197 1.3333 1.3553 1.3279 1.2646 1.1972 1.1578 1.0792 1.0341 0.6840 0.9925 0.9945 0.8308 0.7040 0.6277 0.8358 2.1713 2.9795 2.1075 0.9411 0.8991 0.9500 0.9461 0.9121 0.9001 0.9533 0.9870 0.8632 0.7084 0.5231 0.4551
0.9328 1.1319 1.1371 1.1585 1.2227 1.3029 1.3809 1.4361 1.3645 1.3566 3.1519 4.2023 3.5873 2.0168 1.8712 1.7202 1.5417 1.4916 1.4701 1.4761 1.3203 1.1052 1.0142 0.9701 0.8687 0.7790 0.7080 0.6683 0.6572 0.6164 0.5730 0.5238 0.5208 0.5117 0.4744 0.4187 0.3659 0.3121 0.2608 0.2294 0.2018 0.1936 0.1860 0.1770 0.1621 0.1628 0.1540 0.1465 0.1477 0.1695 0.1860 0.1986 0.2442 0.2576 0.2653 0.2737 0.2769 0.2657 0.2871 0.3212 0.3527 0.3666 0.4186 0.4461 0.4760 0.5388 0.5814 0.6660 0.8110 0.9530 1.1040 1.2332 1.2946 2.0213 2.8340 2.7604 2.2628 1.7259 1.7442 1.6784 1.6392 1.6434 1.6682 1.5904 1.4382 1.3174 1.2315 1.1579 1.0973 1.0082 0.9642 1.0127 1.0375 0.8715 0.9477 1.0565 1.1034 1.1591 1.1984 1.2112 1.2037 1.2064 1.0063 1.0985 1.1035 0.6041 1.0254 1.0572 0.9406 0.8062 0.7057 0.7978 1.3613 3.0547 2.6564 0.9040 1.2461 1.2100 1.0501 0.9191 0.9666 0.9517 0.9644 0.9258 0.6945 0.5140 0.6179 0.5435 0.3768
0.7204 0.9435 0.9981 1.0170 1.0588 1.1146 1.1682 1.2033 1.1167 2.6447 4.0793 3.5692 1.9290 1.8888 1.8377 1.6812 1.4638 1.3203 1.2792 1.2920 1.2076 1.0110 0.8888 0.8460 0.7581 0.6485 0.5933 0.5419 0.5420 0.5109 0.4678 0.4178 0.4039 0.3761 0.3624 0.3160 0.2742 0.2366 0.1920 0.1661 0.1479 0.1355 0.1283 0.1216 0.1079 0.1020 0.1046 0.1115 0.1175 0.1354 0.1540 0.1818 0.1949 0.2182 0.2409 0.2558 0.2572 0.2584 0.2784 0.3256 0.3574 0.3802 0.4083 0.4462 0.4792 0.5497 0.6130 0.7204 0.8971 1.0560 1.1828 1.2554 2.3596 2.7886 2.2198 1.5725 1.5973 1.6638 1.6065 1.5398 1.4659 1.4588 1.4725 1.3767 1.2107 1.1303 1.0354 0.9710 0.9602 0.9171 0.8598 0.9413 0.9901 0.8762 0.8625 1.0023 1.0505 1.0876 1.0931 1.1023 1.0253 1.0988 1.0309 0.5925 1.0415 1.1218 1.0279 0.8813 0.6741 0.6814 1.0298 2.1331 2.8770 1.3192 1.0105 0.9003 0.8263 0.7595 0.9409 1.1369 0.9611 0.9379 0.8076 0.5715 0.4961 0.4155 0.9117 1.3562 1.4509
0.6180 0.8139 0.8871 0.8975 0.9615 1.0498 1.1128 1.0892 1.9825 3.9162 3.7135 1.7398 1.8482 1.7806 1.7418 1.5576 1.3284 1.1785 1.1146 1.1372 1.0738 0.9087 0.7781 0.7259 0.6477 0.5452 0.4916 0.4427 0.4340 0.4166 0.3841 0.3362 0.3092 0.2749 0.2676 0.2439 0.2022 0.1690 0.1417 0.1211 0.1066 0.0919 0.0805 0.0799 0.0791 0.0647 0.0723 0.0755 0.0904 0.1070 0.1272 0.1559 0.1727 0.1985 0.2222 0.2472 0.2593 0.2695 0.2935 0.3202 0.3516 0.3829 0.4246 0.4591 0.5135 0.5987 0.6961 0.8044 0.9461 1.1036 1.2936 2.3719 2.5458 1.7526 1.2908 1.3834 1.5563 1.5002 1.4609 1.3836 1.2979 1.2741 1.2450 1.1861 1.0192 0.9634 0.8816 0.8579 0.8553 0.8502 0.8441 0.8640 0.9053 0.8533 0.8730 0.9175 0.9516 1.0203 1.0007 1.0202 0.9975 0.7143 0.9841 1.1076 1.1310 1.0176 0.8365 0.7220 0.9362 1.4830 2.5425 2.2746 1.2232 0.9851 0.7736 0.6545 0.3313 0.1416 0.4528 0.9311 0.8222 0.7320 0.5524 0.5714 0.5828 0.7661 0.9029 0.2552 0.9611
0.5277 0.7154 0.8084 0.8715 0.9559 1.0618 1.1576 1.3751 3.5295 4.0017 1.7176 1.6725 1.7131 1.6603 1.5672 1.4192 1.1945 1.0318 0.9724 0.9887 0.9513 0.8059 0.6876 0.6120 0.5573 0.4634 0.4141 0.3673 0.3501 0.3397 0.3054 0.2731 0.2358 0.2067 0.2016 0.1813 0.1502 0.1269 0.1026 0.0864 0.0789 0.0612 0.0555 0.0523 0.0566 0.0541 0.0522 0.0494 0.0674 0.0808 0.1036 0.1334 0.1599 0.1835 0.2119 0.2393 0.2592 0.2700 0.2898 0.3203 0.3560 0.3906 0.4343 0.4960 0.5779 0.6713 0.7654 0.8808 0.9906 1.2241 2.1970 2.3685 1.5293 1.2580 1.2485 1.2674 1.3934 1.3734 1.2895 1.2116 1.1400 1.0771 1.0508 0.9970 0.8912 0.8240 0.7708 0.7841 0.7666 0.7775 0.7794 0.7868 0.8374 0.8480 0.8198 0.8624 0.9196 0.9438 0.8752 0.7958 0.9039 0.9953 1.0940 1.1033 0.9712 0.8135 0.8437 1.2539 2.0310 2.1855 1.2036 1.0392 0.8041 0.6471 0.5761 0.4507 0.2908 0.0744 0.2739 0.6370 0.7893 0.6464 0.6813 0.6857 0.7828 0.8711 0.9240 1.0686 0.9877
0.4660 0.6593 0.7775 0.8845 1.0106 1.1636 1.2414 2.9455 4.0948 1.6157 1.5957 1.5586 1.5487 1.4683 1.3401 1.2164 1.0409 0.9031 0.8386 0.8620 0.8117 0.7080 0.5968 0.5142 0.4726 0.4042 0.3501 0.3070 0.2835 0.2683 0.2381 0.2129 0.1884 0.1644 0.1531 0.1381 0.1081 0.0960 0.0796 0.0725 0.0648 0.0469 0.0426 0.0557 0.0557 0.0533 0.0215 0.0559 0.0381 0.0608 0.0901 0.1208 0.1468 0.1732 0.1997 0.2271 0.2497 0.2649 0.2858 0.3206 0.3570 0.3916 0.4428 0.5028 0.5764 0.6779 0.8040 0.9199 1.1205 1.9458 2.2849 1.4853 1.1413 1.2015 1.1443 1.1424 1.2283 1.2320 1.1436 1.0618 0.9641 0.9457 0.8732 0.8577 0.7809 0.7343 0.7137 0.6952 0.7032 0.6876 0.7079 0.7284 0.7600 0.7769 0.8022 0.8187 0.7605 0.7493 0.7917 0.8456 0.9455 1.0283 0.9899 0.8674 0.8117 0.9108 1.4205 1.7595 1.4680 1.0169 0.8276 0.6479 0.5839 0.5229 0.4477 0.3634 0.2339 0.1521 0.4083 0.6356 0.6264 0.7298 0.7656 0.8125 0.7855 0.8136 0.8559 0.9507 1.3474
0.4232 0.6191 0.7646 0.9012 1.0766 1.2064 1.3101 4.3685 1.3110 1.5290 1.4793 1.3821 1.3593 1.2367 1.1092 1.0160 0.8818 0.7721 0.7271 0.7275 0.6835 0.6032 0.4989 0.4340 0.3948 0.3507 0.2897 0.2534 0.2320 0.2076 0.1842 0.1627 0.1464 0.1262 0.1167 0.1018 0.1015 0.0472 0.0728 0.0725 0.0706 0.0480 0.0550 0.0477 0.0557 0.0587 0.0612 0.0467 0.0412 0.0512 0.0795 0.1114 0.1385 0.1646 0.1879 0.2083 0.2338 0.2540 0.2775 0.3083 0.3440 0.3749 0.4197 0.4815 0.5563 0.6541 0.7808 0.9755 1.6206 2.1559 1.6975 1.0667 1.0539 1.0860 1.0722 1.0062 1.0754 1.0782 1.0264 0.9394 0.8430 0.8157 0.7596 0.7500 0.7205 0.6471 0.6384 0.6174 0.6153 0.6291 0.6393 0.6754 0.7021 0.6942 0.6203 0.6730 0.7144 0.7139 0.7697 0.8684 0.9300 0.8806 0.8094 0.7834 0.8851 1.2462 1.4308 0.9415 0.8070 0.6860 0.6237 0.5879 0.5133 0.4388 0.4523 0.3792 0.3418 0.4093 0.5300 0.5418 0.6523 0.7567 0.7187 0.6903 1.0166 1.1903 1.3784 1.5610 1.6724
0.3735 0.5832 0.7718 0.9130 1.0508 1.1910 1.4530 4.2598 1.3697 1.4181 1.3309 1.2034 1.1245 1.0064 0.8758 0.8178 0.7493 0.6500 0.6076 0.6042 0.5586 0.4887 0.4143 0.3530 0.3176 0.2876 0.2359 0.2073 0.1870 0.1623 0.1406 0.1218 0.1091 0.0946 0.0895 0.0892 0.0859 0.0884 0.0593 0.1155 0.0698 0.0582 0.0551 0.0598 0.0612 0.0566 0.0583 0.0589 0.0508 0.0471 0.0736 0.1005 0.1268 0.1514 0.1744 0.1974 0.2175 0.2365 0.2587 0.2868 0.3204 0.3584 0.4061 0.4770 0.5645 0.6495 0.8375 1.4557 2.0291 1.7793 1.0191 0.9855 0.9496 0.9806 0.9683 0.8933 0.9332 0.9420 0.9209 0.8524 0.7465 0.7268 0.6785 0.6492 0.6354 0.6114 0.5647 0.5661 0.5602 0.5681 0.6103 0.5831 0.4741 0.6230 0.6247 0.6193 0.6499 0.6939 0.7553 0.7872 0.7798 0.7420 0.7354 0.8157 1.0125 1.1429 0.9056 0.6408 0.5696 0.5763 0.5702 0.5589 0.5404 0.5171 0.4656 0.4584 0.4735 0.5422 0.5820 0.6550 0.7518 1.0212 1.2241 1.5630 1.8657 2.0948 2.3292 2.3907 2.9855
0.3682 0.5590 0.7507 0.8825 1.0048 1.1973 2.2633 3.9704 1.3455 1.2763 1.1560 1.0003 0.9151 0.7850 0.6829 0.6535 0.5915 0.5241 0.4848 0.4846 0.4480 0.3880 0.3299 0.2734 0.2463 0.2262 0.1894 0.1657 0.1485 0.1280 0.1060 0.0909 0.0787 0.0713 0.0692 0.0819 0.0960 0.1126 0.1190 0.0444 0.0668 0.0678 0.0695 0.0715 0.0731 0.0672 0.0721 0.0699 0.0654 0.0657 0.0684 0.0923 0.1164 0.1404 0.1625 0.1848 0.2073 0.2302 0.2539 0.2805 0.3144 0.3566 0.4097 0.4867 0.5795 0.7418 1.4070 1.9004 1.7931 0.9840 0.9105 0.8907 0.8666 0.8686 0.8798 0.8071 0.8013 0.8501 0.8260 0.7708 0.6805 0.6348 0.5882 0.6110 0.5945 0.5475 0.5339 0.5050 0.5486 0.5116 0.4153 0.4948 0.5115 0.5351 0.5575 0.6047 0.6277 0.6699 0.6862 0.6839 0.6738 0.6706 0.7559 0.8690 0.9033 0.7970 0.6181 0.5024 0.4946 0.5130 0.5641 0.5883 0.6204 0.6253 0.6511 0.6867 0.7298 0.7342 0.7548 0.9948 1.2268 1.6686 2.0627 2.2204 2.0153 2.9959 5.1052 6.8390 10.6369
0.3659 0.5434 0.7203 0.8289 0.9772 1.2133 2.8976 3.3915 1.2800 1.1351 0.9801 0.8256 0.7308 0.6158 0.5250 0.5013 0.4591 0.4063 0.3692 0.3717 0.3456 0.2971 0.2501 0.2075 0.1873 0.1667 0.1513 0.1337 0.1193 0.1034 0.0856 0.0644 0.0551 0.0501 0.0595 0.0781 0.0941 0.1105 0.1105 0.0726 0.0760 0.0847 0.0894 0.0917 0.0947 0.1000 0.0906 0.0905 0.0872 0.0790 0.0720 0.0879 0.1116 0.1356 0.1595 0.1822 0.2062 0.2317 0.2560 0.2830 0.3225 0.3775 0.4387 0.5226 0.7905 1.4459 1.7811 1.7312 1.1089 0.8641 0.8207 0.8097 0.7889 0.7765 0.7880 0.7380 0.7041 0.7539 0.7277 0.6880 0.5980 0.5672 0.5830 0.5473 0.5301 0.5091 0.5003 0.4816 0.3821 0.4179 0.4268 0.4517 0.4688 0.4907 0.5189 0.5832 0.6006 0.6306 0.6293 0.6461 0.6478 0.6937 0.7525 0.7636 0.7034 0.6404 0.5660 0.4916 0.5136 0.5804 0.6498 0.7661 0.8751 0.9000 0.8959 0.9383 1.1634 1.1340 1.3306 1.5811 1.6149 1.6451 2.4053 4.0201 6.9525 8.6256 8.9238 7.6271 8.8571
0.3569 0.5172 0.6822 0.7826 0.9731 1.2309 3.2356 2.8089 1.1913 0.9994 0.8154 0.6581 0.5698 0.4866 0.4107 0.3844 0.3565 0.3113 0.2692 0.2698 0.2532 0.2136 0.1808 0.1544 0.1351 0.1260 0.1148 0.1032 0.0927 0.0805 0.0642 0.0458 0.0336 0.0292 0.0370 0.0640 0.0934 0.1064 0.1063 0.1037 0.1078 0.1116 0.1183 0.1205 0.1259 0.1311 0.1277 0.1113 0.1028 0.0687 0.0818 0.0940 0.1156 0.1390 0.1622 0.1857 0.2068 0.2284 0.2565 0.2913 0.3437 0.4128 0.5137 0.8150 1.4694 1.7180 1.5701 1.0577 0.8787 0.7729 0.7485 0.7341 0.7217 0.7072 0.6957 0.6814 0.6155 0.6273 0.6342 0.5878 0.5490 0.5371 0.4924 0.5085 0.4684 0.4127 0.3848 0.4131 0.3617 0.3622 0.4068 0.4170 0.4380 0.4562 0.4985 0.5661 0.6177 0.6280 0.6118 0.6100 0.6167 0.6426 0.6372 0.6051 0.5741 0.5809 0.5820 0.5959 0.6695 0.7961 0.9224 1.0534 1.1691 1.2534 1.2504 1.5427 1.8576 1.7467 1.6080 1.4615 1.6296 4.8108 7.1086 8.8118 8.2804 7.1391 5.5606 5.8686 6.0739
0.3574 0.5010 0.6319 0.7535 0.9743 1.2664 2.7647 2.9683 1.1395 0.9049 0.6963 0.5439 0.4521 0.3837 0.3471 0.3225 0.2761 0.2344 0.1925 0.1851 0.1727 0.1434 0.1230 0.1101 0.0968 0.0888 0.0782 0.0729 0.0690 0.0597 0.0450 0.0280 0.0095 0.0157 0.0122 0.0344 0.0776 0.1080 0.1161 0.1259 0.1332 0.1453 0.1495 0.1521 0.1473 0.1359 0.1389 0.1339 0.1226 0.1238 0.1151 0.1115 0.1250 0.1406 0.1657 0.1864 0.2140 0.2450 0.3058 0.3724 0.4194 0.5853 0.9904 1.5209 1.5971 1.4597 0.9828 0.7863 0.7679 0.7237 0.6839 0.6587 0.6660 0.6295 0.6106 0.5723 0.5340 0.5264 0.5211 0.5071 0.4501 0.5180 0.4532 0.3612 0.3760 0.3608 0.3376 0.3467 0.3474 0.3600 0.3585 0.3748 0.4050 0.4423 0.4851 0.5560 0.5829 0.5900 0.5651 0.5272 0.5062 0.5133 0.4921 0.4725 0.5241 0.5741 0.5976 0.6694 0.8079 0.9754 1.1034 1.2817 1.6055 1.9292 1.8640 1.7464 1.5297 1.9497 4.1903 8.3702 9.4730 9.2040 7.8975 6.5200 3.9769 2.2492 2.1084 2.0789 1.9964
0.3325 0.4786 0.6109 0.7603 1.0043 1.2458 1.9808 3.3432 1.0810 0.8244 0.6124 0.4546 0.3828 0.3244 0.2870 0.2659 0.2317 0.1812 0.1541 0.1307 0.1119 0.0918 0.0806 0.0745 0.0653 0.0579 0.0488 0.0479 0.0507 0.0497 0.0286 0.0339 0.0670 0.0123 0.0039 0.0230 0.0622 0.1025 0.1270 0.1336 0.1417 0.1458 0.1493 0.1532 0.1598 0.1528 0.1533 0.1481 0.1337 0.1211 0.1378 0.1365 0.1380 0.1541 0.1736 0.2002 0.2523 0.3892 0.4960 0.5001 0.7700 1.1903 1.5636 1.5003 1.2872 0.9728 0.7600 0.6894 0.6999 0.6777 0.6171 0.5993 0.5821 0.5373 0.5366 0.4770 0.4540 0.4422 0.3373 0.4746 0.4309 0.3058 0.3751 0.3382 0.3268 0.2991 0.3173 0.2762 0.3176 0.3270 0.3542 0.3982 0.4378 0.4505 0.4721 0.4879 0.4814 0.4648 0.4269 0.3878 0.3860 0.4091 0.4226 0.4621 0.4861 0.5570 0.6277 0.7235 0.7903 1.1017 1.6347 1.9407 1.8160 1.7295 2.1157 3.7197 7.9468 9.3126 9.1650 6.6199 4.0613 2.5362 2.3013 2.1982 2.1186 1.8619 1.8711 1.9479 1.6274
0.3522 0.4899 0.6202 0.7761 0.9818 1.1453 1.3913 3.3576 1.0307 0.7778 0.5666 0.4122 0.3394 0.2901 0.2497 0.2180 0.1902 0.1564 0.1245 0.0993 0.0784 0.0573 0.0520 0.0513 0.0458 0.0395 0.0383 0.0399 0.0481 0.0469 0.0494 0.0562 0.0575 0.0073 0.0005 0.0179 0.0529 0.0895 0.1181 0.1307 0.1341 0.1392 0.1402 0.1462 0.1622 0.1681 0.1478 0.1443 0.1170 0.1312 0.1421 0.1581 0.1592 0.1712 0.2229 0.3200 0.5933 0.7294 0.7438 1.0203 1.1957 1.5979 1.3660 1.0530 0.7687 0.7671 0.6845 0.6300 0.6434 0.6134 0.5597 0.5329 0.5115 0.4816 0.4386 0.4016 0.3284 0.3773 0.3450 0.2737 0.3200 0.2671 0.2872 0.3076 0.3328 0.3153 0.3174 0.2975 0.3061 0.3572 0.4005 0.4398 0.4508 0.4447 0.3793 0.3669 0.3638 0.3252 0.3464 0.3418 0.3405 0.3792 0.4200 0.4505 0.5058 0.5566 0.5851 0.6183 1.3088 1.6528 1.8710 1.9928 2.1497 3.8297 7.4093 8.9444 6.6313 3.1932 2.1317 1.8721 1.9702 1.9489 1.9176 1.9459 1.8295 1.7029 1.6116 1.7266 1.4306
0.3558 0.4986 0.6295 0.7722 0.9367 1.0162 1.1687 3.2102 1.1175 0.7520 0.5398 0.3977 0.3265 0.2623 0.2248 0.1911 0.1559 0.1239 0.1018 0.0849 0.0613 0.0428 0.0358 0.0394 0.0382 0.0349 0.0364 0.0326 0.0390 0.0429 0.0513 0.0541 0.0504 0.0299 0.0098 0.0107 0.0441 0.0809 0.1055 0.1218 0.1327 0.1364 0.1426 0.1459 0.1387 0.1540 0.1574 0.1360 0.1566 0.1525 0.1608 0.1838 0.2711 0.3330 0.5295 0.7894 0.8383 1.0031 1.3528 1.5738 1.5113 0.9990 0.7968 0.7096 0.6964 0.6801 0.6215 0.5737 0.5610 0.5463 0.5009 0.5065 0.4455 0.4001 0.2968 0.3396 0.2794 0.2433 0.2589 0.2154 0.2616 0.2950 0.3088 0.2902 0.3432 0.3370 0.3273 0.3699 0.3962 0.4417 0.4908 0.4578 0.4798 0.4501 0.4307 0.4333 0.4215 0.4073 0.3983 0.3909 0.3788 0.3876 0.4055 0.3860 0.4316 0.5231 0.6799 2.1965 1.9508 2.0398 2.1981 2.9487 6.7792 8.5947 6.7583 1.9196 1.8532 1.8389 1.8520 1.8277 1.8213 1.8506 1.7350 1.7474 1.5841 1.4818 1.4607 1.4848 1.4242
0.3601 0.5000 0.6254 0.7355 0.8580 0.9301 1.0774 2.6616 2.1924 0.7569 0.5400 0.3905 0.3084 0.2459 0.2002 0.1658 0.1316 0.1044 0.0821 0.0658 0.0512 0.0370 0.0278 0.0304 0.0328 0.0364 0.0301 0.0377 0.0347 0.0365 0.0477 0.0533 0.0489 0.0389 0.0380 0.0167 0.0439 0.0679 0.0936 0.1154 0.1322 0.1460 0.1501 0.1440 0.1377 0.1437 0.1487 0.1699 0.1687 0.1951 0.2689 0.4677 0.5054 0.7672 0.9935 0.8579 1.0761 1.2950 1.3093 0.9451 0.6690 0.6426 0.6258 0.6650 0.5971 0.6034 0.5520 0.5240 0.5016 0.4935 0.4814 0.3250 0.4309 0.3535 0.2795 0.1660 0.2550 0.1846 0.2437 0.2657 0.2998 0.3046 0.3157 0.3373 0.3365 0.3892 0.4416 0.4628 0.5053 0.5550 0.5859 0.5858 0.6059 0.6274 0.6424 0.6064 0.6105 0.5984 0.5514 0.5429 0.5571 0.5193 0.3058 0.4522 1.1648 2.0898 1.7856 2.3357 2.2960 2.4319 5.5596 8.4450 6.7691 1.9584 1.9589 1.8535 1.7389 1.7349 1.7102 1.7285 1.6854 1.7421 1.6206 1.5468 1.4686 1.3287 1.3441 1.4212 1.3577
0.3651 0.4956 0.6034 0.6862 0.7916 0.8607 0.9445 1.6132 2.8017 0.7562 0.5364 0.3782 0.2927 0.2299 0.1823 0.1473 0.1196 0.0924 0.0681 0.0507 0.0431 0.0340 0.0248 0.0218 0.0281 0.0301 0.0406 0.0417 0.0350 0.0341 0.0436 0.0536 0.0522 0.0404 0.0297 0.0473 0.0533 0.0700 0.0846 0.1058 0.1220 0.1397 0.1523 0.1566 0.1620 0.1624 0.1910 0.2423 0.4546 0.5276 0.6184 0.7200 0.8486 1.0017 1.0278 1.3655 1.2715 1.0759 0.7341 0.6843 0.6734 0.5674 0.5659 0.5668 0.5363 0.5394 0.4959 0.4732 0.4559 0.3146 0.4574 0.3972 0.3637 0.3215 0.2728 0.2576 0.2469 0.2548 0.2676 0.2920 0.2850 0.3228 0.3481 0.3588 0.4048 0.4701 0.5431 0.5877 0.6337 0.6748 0.7242 0.7694 0.8034 0.8442 0.8623 0.8466 0.8262 0.8098 0.8035 0.8456 0.8988 0.8858 1.1594 1.6358 2.1821 2.6532 2.3262 2.3939 2.8255 8.1268 7.1615 2.1839 2.1100 1.9340 1.8479 1.6925 1.6038 1.5911 1.5666 1.5685 1.5409 1.5875 1.5177 1.4218 1.3609 1.2365 1.2080 1.3499 1.3038
0.3614 0.4823 0.5695 0.6363 0.7339 0.7907 0.8605 1.3302 2.7753 0.7994 0.5166 0.3552 0.2730 0.2183 0.1732 0.1388 0.1115 0.0842 0.0633 0.0417 0.0371 0.0302 0.0212 0.0201 0.0179 0.0287 0.0390 0.0427 0.0317 0.0271 0.0385 0.0522 0.0566 0.0624 0.0149 0.0462 0.0577 0.0768 0.0940 0.1054 0.1227 0.1424 0.1654 0.1937 0.2250 0.3155 0.4065 0.8333 0.6926 0.8494 1.0287 1.1271 1.3221 1.2683 1.1712 0.8560 0.6698 0.6292 0.6557 0.6047 0.5895 0.5342 0.5095 0.5136 0.4955 0.4616 0.4489 0.3377 0.3964 0.4032 0.4203 0.3855 0.3138 0.2779 0.2578 0.2425 0.2305 0.2373 0.2525 0.2706 0.3081 0.3356 0.3714 0.4258 0.4692 0.5383 0.6501 0.7264 0.7838 0.8253 0.9004 0.9696 0.9856 1.0323 1.0537 1.0251 0.9839 1.0397 1.0910 1.1861 1.2702 1.3911 1.8343 2.0660 2.1628 2.6061 3.6305 7.4340 7.8294 2.4855 2.1529 2.0958 1.9648 1.8314 1.6864 1.5780 1.4844 1.4161 1.3905 1.3963 1.3549 1.4036 1.4283 1.2740 1.2558 1.0876 1.0898 1.2359 1.2730
0.3438 0.4550 0.5267 0.5915 0.6809 0.7242 0.7740 1.0251 2.5304 1.6611 0.5072 0.3488 0.2642 0.2047 0.1694 0.1359 0.1065 0.0791 0.0625 0.0464 0.0331 0.0246 0.0172 0.0128 0.0127 0.0265 0.0396 0.0439 0.0340 0.0166 0.0311 0.0516 0.0584 0.0475 0.0715 0.0613 0.0724 0.0898 0.1072 0.1340 0.1623 0.2002 0.2762 0.3661 0.5871 0.6594 1.1717 0.8333 1.2289 1.2614 1.1656 1.0827 0.8572 0.6557 0.6650 0.6192 0.5895 0.6204 0.5762 0.5382 0.5379 0.5099 0.4818 0.4601 0.4338 0.4039 0.3651 0.2916 0.3812 0.4349 0.4051 0.3000 0.2590 0.2461 0.2335 0.2062 0.2530 0.2509 0.2864 0.2925 0.3331 0.3727 0.4335 0.5077 0.5882 0.6559 0.7848 0.8993 0.9381 0.9863 1.0368 1.1280 1.1577 1.1933 1.2087 1.1492 1.1158 1.2011 1.3026 1.4656 1.5393 1.5453 2.0396 3.8649 5.4890 7.0184 7.1886 3.9986 2.1784 2.0562 2.0012 1.8957 1.8264 1.7176 1.5299 1.4809 1.3599 1.2581 1.2259 1.2005 1.1810 1.2434 1.2722 1.1753 1.1047 1.0160 0.9645 1.0896 1.2613
0.3069 0.4157 0.4823 0.5436 0.6309 0.6526 0.7026 0.8302 1.8675 2.2449 0.4978 0.3551 0.2639 0.2056 0.1587 0.1276 0.1049 0.0812 0.0611 0.0462 0.0335 0.0187 0.0052 0.0097 0.0141 0.0267 0.0388 0.0467 0.0513 0.0129 0.0291 0.0562 0.0759 0.0772 0.0719 0.0983 0.1209 0.1495 0.1891 0.2653 0.4310 0.4587 0.5428 0.7212 0.9108 1.2085 0.9391 1.0861 0.9241 0.6908 0.6213 0.6383 0.6362 0.6845 0.6222 0.5834 0.5703 0.5568 0.5350 0.5160 0.4987 0.4881 0.4457 0.4167 0.4121 0.3680 0.3874 0.3295 0.3717 0.4624 0.2578 0.2151 0.2125 0.2289 0.2149 0.2146 0.2449 0.2788 0.2705 0.3161 0.3622 0.4177 0.4883 0.5994 0.7043 0.7987 0.9404 1.0658 1.1173 1.1922 1.2893 1.7861 2.8420 3.5438 3.7419 3.0869 1.8665 1.4377 2.0194 2.6732 3.0949 4.3206 6.1195 6.3475 5.5511 3.9310 2.3098 2.0884 2.0119 1.9095 1.8376 1.7421 1.6609 1.5650 1.4117 1.3500 1.2043 1.1292 1.0830 1.0527 1.0978 1.1127 1.1387 1.1018 0.9941 0.9741 0.8433 0.9303 1.2382
0.2691 0.3740 0.4408 0.5053 0.5700 0.5781 0.6364 0.7111 1.2419 2.5087 0.5298 0.3760 0.2837 0.2135 0.1598 0.1282 0.1058 0.0853 0.0637 0.0492 0.0342 0.0181 0.0078 0.0101 0.0193 0.0316 0.0433 0.0540 0.0680 0.0251 0.0495 0.0729 0.1091 0.2939 0.2955 0.2796 0.2914 0.3406 0.4150 0.5605 0.6324 0.6846 0.8361 0.9992 0.9936 0.8325 0.6536 0.6397 0.6199 0.5733 0.6063 0.6250 0.6491 0.6476 0.5978 0.5669 0.5499 0.5371 0.5073 0.4995 0.4647 0.4357 0.4512 0.3804 0.3666 0.3714 0.3520 0.4001 0.4754 0.2189 0.0589 0.1078 0.2117 0.1817 0.1824 0.2037 0.2373 0.2550 0.3148 0.3539 0.4057 0.4976 0.5736 0.7056 0.8103 0.9326 1.0551 1.2044 1.3141 1.6407 2.6710 4.0362 4.1030 3.7665 3.7467 4.6054 5.0060 4.4599 4.3005 4.4257 4.8968 5.4094 4.2295 2.6673 2.0922 2.0780 2.0863 1.9325 1.8926 1.7733 1.6672 1.5946 1.4634 1.3784 1.2659 1.1465 1.0803 1.0269 0.9783 0.9927 1.0564 1.0126 1.0647 0.9993 0.9200 0.8733 0.7889 0.8792 1.1344
0.2503 0.3405 0.4061 0.4645 0.5176 0.5299 0.5767 0.6486 0.8125 1.8994 2.0499 0.4041 0.3150 0.2288 0.1671 0.1319 0.1072 0.0890 0.0690 0.0470 0.0308 0.0200 0.0114 0.0192 0.0274 0.0391 0.0551 0.0706 0.1585 0.0970 0.0663 0.1712 0.5474 0.5242 0.5323 0.5465 0.5550 0.5776 0.6486 0.6916 0.6499 0.9191 0.9683 0.8485 0.8344 0.6699 0.5813 0.6159 0.5392 0.5784 0.5993 0.6125 0.6280 0.6213 0.5933 0.5569 0.5419 0.5294 0.4743 0.4433 0.4605 0.3993 0.4043 0.3715 0.3478 0.3552 0.3093 0.3837 0.4633 0.3290 0.1868 0.1432 0.0827 0.1186 0.1447 0.1990 0.2665 0.3369 0.4040 0.4347 0.5031 0.5925 0.6835 0.8008 0.9514 1.0755 1.1646 1.3957 2.1297 3.5578 3.8499 2.8965 1.8977 1.4749 1.4802 1.5337 1.7258 3.4419 3.7273 3.6834 4.2661 3.5991 2.2532 1.7816 1.7925 1.8562 1.8873 1.7990 1.7211 1.6220 1.4650 1.3609 1.2607 1.1799 1.0748 0.9773 1.0079 0.9690 0.9563 0.9781 0.9918 0.9699 0.9624 0.8945 0.8679 0.7852 0.7842 0.7781 1.0098
0.2450 0.3233 0.3840 0.4302 0.4674 0.4902 0.5223 0.5979 0.7641 1.0698 2.2981 1.4056 0.3492 0.2489 0.1795 0.1367 0.1078 0.0890 0.0673 0.0414 0.0221 0.0218 0.0256 0.0288 0.0388 0.0563 0.0882 0.1234 0.1893 0.2294 0.3462 0.7546 0.6027 0.5886 0.5825 0.5946 0.5706 0.7017 0.6918 0.6191 0.8787 0.9048 0.6953 0.7160 0.6650 0.5978 0.5622 0.5819 0.5795 0.5682 0.5763 0.5689 0.6372 0.6197 0.5710 0.5788 0.4659 0.4648 0.4839 0.3952 0.4154 0.3928 0.3750 0.3652 0.3277 0.3342 0.3395 0.2580 0.3993 0.4017 0.3662 0.3653 0.0275 0.0551 0.1258 0.2792 0.3891 0.4454 0.5120 0.5789 0.6292 0.7129 0.8289 0.9030 1.0495 1.2237 1.6612 2.8030 3.6269 3.2629 1.8257 1.2427 1.2557 1.3009 1.3922 1.4475 1.5244 1.5723 1.6135 2.2169 3.6251 2.9799 1.9783 1.5782 1.5918 1.6667 1.6608 1.5929 1.4846 1.4049 1.2450 1.1110 1.0796 1.0139 0.9237 0.8825 0.9822 0.9510 0.9418 0.9652 0.9537 0.9212 0.8733 0.8404 0.7746 0.7295 0.7275 0.7018 0.8795
0.2516 0.3304 0.3777 0.4021 0.4207 0.4343 0.4645 0.5593 0.8141 1.0854 1.4670 2.1866 0.3576 0.2766 0.1944 0.1435 0.1113 0.0866 0.0629 0.0376 0.0145 0.0166 0.0248 0.0352 0.0566 0.0919 0.1383 0.1786 0.1649 0.6231 0.7427 0.4650 0.4604 0.4712 0.5091 0.5376 0.7654 0.8204 0.8442 0.8727 0.7849 0.6497 0.6451 0.6264 0.6195 0.5903 0.5742 0.5770 0.5804 0.5452 0.5534 0.6152 0.5908 0.5859 0.4785 0.4805 0.4951 0.3982 0.4241 0.3931 0.3779 0.3774 0.3542 0.3457 0.3232 0.3004 0.3228 0.2461 0.3858 0.4980 0.5744 0.4155 0.0029 0.0258 0.0780 0.9356 0.6160 0.6631 0.6977 0.8050 0.8550 0.9220 1.0095 1.0659 1.4434 2.2928 3.3308 3.3049 2.4529 1.4752 1.2859 1.1670 1.1497 1.1753 1.2041 1.3152 1.4321 1.5170 1.6131 2.7877 3.5796 2.5954 1.8374 1.4985 1.4810 1.4595 1.4086 1.3592 1.2354 1.1646 1.0479 0.9360 0.9063 0.9012 0.8784 0.8753 0.9037 0.9204 0.9512 0.9363 0.9031 0.8593 0.7745 0.7516 0.6923 0.6874 0.6494 0.6158 0.7348
0.2855 0.3596 0.3766 0.3658 0.3711 0.3679 0.4334 0.6340 0.9650 1.1753 1.2842 1.9593 1.5786 0.3184 0.2124 0.1536 0.1162 0.0864 0.0590 0.0316 0.0126 0.0033 0.0211 0.0445 0.0881 0.1434 0.1977 0.2495 0.6200 0.6113 0.6800 0.6575 0.5047 0.4855 0.5622 0.6825 0.7353 0.7167 0.6619 0.6020 0.6227 0.5861 0.5758 0.5898 0.5957 0.5778 0.5610 0.5942 0.5661 0.5140 0.5537 0.5369 0.4692 0.5032 0.4392 0.4211 0.4344 0.3889 0.3791 0.3672 0.3478 0.3463 0.3356 0.3237 0.3012 0.2799 0.3120 0.2379 0.3886 0.6259 0.3856 0.4329 0.0000 0.0360 0.5869 0.6878 1.3402 0.9410 0.9763 1.0317 1.1030 1.1650 1.2890 2.0060 3.0359 3.0935 2.5038 1.7016 1.6013 1.3776 1.2062 1.0338 0.9725 0.9655 0.9894 1.1876 1.4144 1.5577 1.6847 3.2028 3.3129 2.1804 1.7404 1.4691 1.3692 1.2717 1.1724 1.1160 1.0345 0.9890 0.9318 0.8349 0.8058 0.8230 0.8559 0.8447 0.8368 0.9280 0.9306 0.8903 0.8207 0.7501 0.6812 0.6697 0.6531 0.6274 0.5675 0.5611 0.5824
0.2857 0.3395 0.3563 0.3789 0.3877 0.4005 0.4151 0.8167 1.1214 1.2722 1.9274 1.6533 1.9534 0.3329 0.2441 0.1676 0.1238 0.0920 0.0638 0.0353 0.0013 0.1974 0.0414 0.0924 0.1429 0.1892 0.2625 0.2510 0.6698 0.7786 0.6994 0.5353 0.7508 0.6153 0.5824 0.6795 0.7809 0.7081 0.6051 0.5632 0.5500 0.5609 0.5648 0.5563 0.5632 0.5569 0.5403 0.5514 0.5540 0.4781 0.4491 0.4796 0.3860 0.4178 0.4269 0.3944 0.3879 0.3667 0.3442 0.3240 0.3184 0.3136 0.3050 0.2955 0.2799 0.2540 0.2856 0.2416 0.2426 0.5609 0.5615 0.6562 0.3392 0.0555 0.7467 0.8210 1.1571 0.8681 1.1394 1.2489 1.3355 1.4802 2.6703 2.8229 2.2398 1.7229 1.5853 1.4123 1.3980 1.2461 1.0546 0.8408 0.7262 0.7425 0.8502 1.1459 1.4418 1.6445 2.0102 3.4405 2.7433 1.8583 1.6571 1.4669 1.2640 1.0920 0.9722 0.9197 0.9154 0.8906 0.8401 0.7919 0.7603 0.7715 0.8242 0.8235 0.8061 0.8937 0.8841 0.8108 0.7116 0.6355 0.5915 0.5648 0.5529 0.5272 0.5202 0.4918 0.4710
0.2433 0.2990 0.3332 0.3793 0.3886 0.4119 0.5930 1.0373 1.0332 2.4114 3.7251 4.2671 2.0123 0.6310 0.2977 0.2046 0.1494 0.1117 0.0830 0.0511 0.0234 0.2115 0.1187 0.1023 0.1807 0.2486 0.2848 0.2361 0.5325 0.9034 0.5810 0.1298 0.6262 0.7869 0.5594 0.8042 0.7124 0.5974 0.5448 0.5227 0.5218 0.5261 0.5272 0.5414 0.5104 0.4942 0.5197 0.4704 0.4330 0.4601 0.3566 0.3952 0.3928 0.3793 0.3868 0.3684 0.3512 0.3269 0.3027 0.2873 0.2855 0.2844 0.2709 0.2595 0.2492 0.2409 0.2443 0.2532 0.1805 0.4396 0.6437 0.6158 0.0832 0.0401 0.1301 0.7747 0.3410 0.9060 1.1963 1.3091 1.4525 2.4897 2.1206 1.4569 1.3719 1.4324 1.3997 1.2749 1.1735 1.0772 0.8618 0.6658 0.6004 0.6543 0.9050 1.1906 1.5187 1.7753 2.7265 3.2687 2.0679 1.7080 1.5792 1.3827 1.1495 0.9466 0.8076 0.7996 0.8299 0.8102 0.8094 0.7632 0.7401 0.7319 0.7657 0.8045 0.8038 0.8431 0.8041 0.6766 0.5987 0.5105 0.4730 0.4503 0.4499 0.4666 0.5026 0.4851 0.4908
0.1676 0.2582 0.3337 0.3763 0.4063 0.4325 0.7003 1.0680 2.5408 2.6974 3.2377 4.4148 4.3918 1.8011 0.3044 0.2377 0.1958 0.1626 0.1225 0.0926 0.0841 0.2053 0.1906 0.1665 0.2234 0.2372 0.3031 0.2903 0.4083 0.8455 0.5932 0.1147 0.1103 0.5532 0.7840 0.8089 0.5583 0.5205 0.5181 0.5027 0.4913 0.4765 0.4504 0.4692 0.4643 0.3999 0.3878 0.4125 0.3373 0.3833 0.3541 0.3483 0.3591 0.3499 0.3419 0.3223 0.3061 0.2859 0.2653 0.2502 0.2619 0.2407 0.2338 0.2441 0.2388 0.2424 0.2329 0.2501 0.1976 0.4211 0.6267 0.2336 0.0423 0.0276 0.0261 0.1264 0.2107 0.6827 1.0519 1.2429 2.0195 1.5525 1.2356 1.2847 1.2458 1.2435 1.1672 1.0645 0.9653 0.8917 0.7466 0.6392 0.6530 0.8548 1.0674 1.3016 1.5525 1.9203 3.0796 2.3840 1.7899 1.5979 1.4682 1.2601 1.0059 0.8435 0.7039 0.7035 0.7488 0.7800 0.7709 0.7451 0.7204 0.7017 0.7393 0.7711 0.7606 0.6935 0.6717 0.5589 0.5043 0.4193 0.4023 0.4004 0.4168 0.4474 0.5011 0.5329 0.6563
0.1602 0.2413 0.3196 0.3650 0.4001 0.3964 0.6685 0.9722 1.9985 3.0463 2.0660 2.8262 4.3399 1.7568 0.2492 0.2286 0.2091 0.2002 0.1779 0.1490 0.1622 0.2112 0.2137 0.2315 0.2366 0.2770 0.2963 0.3323 0.3649 0.6114 0.6095 0.3462 0.2755 0.5221 0.7025 0.6010 0.5453 0.5271 0.4916 0.4625 0.4206 0.4121 0.3883 0.3246 0.3271 0.3309 0.2831 0.3324 0.3213 0.3287 0.3311 0.3221 0.3137 0.2944 0.2838 0.2687 0.2577 0.2369 0.2276 0.2301 0.2181 0.2070 0.2139 0.2277 0.2495 0.2450 0.2287 0.2013 0.1716 0.4627 0.7489 0.4810 0.0061 0.0642 0.0333 0.0857 0.2134 0.4234 0.7419 1.4371 1.4491 1.1589 1.0728 1.0925 1.0516 0.9938 0.9384 0.8738 0.7602 0.7588 0.6940 0.7140 0.8981 1.1143 1.3513 1.5322 1.7720 2.2303 2.8704 1.8595 1.7034 1.4805 1.3265 1.1320 0.8986 0.7271 0.6417 0.6140 0.6805 0.7189 0.7405 0.7123 0.6879 0.7149 0.7178 0.6803 0.6490 0.5685 0.5753 0.5093 0.4279 0.4376 0.4591 0.4780 0.4939 0.5071 0.5287 0.6088 0.8642
0.1592 0.2323 0.3130 0.3709 0.3862 0.3804 0.3848 0.8891 1.4261 1.8937 2.4757 3.6135 2.8563 1.7379 0.3891 0.2518 0.1788 0.1700 0.1975 0.1867 0.1890 0.2178 0.2334 0.2520 0.2554 0.2850 0.3073 0.3410 0.3522 0.4182 0.4836 0.3816 0.3969 0.4299 0.5045 0.5242 0.5243 0.4900 0.4427 0.4178 0.3414 0.2696 0.2655 0.2255 0.2199 0.2608 0.2520 0.2787 0.2945 0.2932 0.2914 0.2764 0.2583 0.2397 0.2250 0.2088 0.2050 0.2079 0.1929 0.1917 0.1828 0.1954 0.2131 0.2242 0.2279 0.2186 0.2201 0.1908 0.1612 0.2097 0.6170 1.0457 0.4130 0.3214 0.1096 0.2237 0.2414 0.3229 0.6120 1.3642 1.1471 1.0066 0.9182 0.8528 0.8247 0.7257 0.7200 0.6998 0.6150 0.6505 0.7090 0.7884 0.9934 1.2495 1.4715 1.6932 1.8392 2.3148 2.0378 1.5458 1.5233 1.4036 1.2030 0.9774 0.7739 0.6117 0.5696 0.5625 0.6054 0.6661 0.7106 0.7101 0.6762 0.6580 0.6156 0.5940 0.5599 0.4877 0.4896 0.4901 0.5216 0.5585 0.5820 0.5994 0.6052 0.6239 0.6500 0.7272 1.0743
0.1029 0.1779 0.2580 0.3048 0.3373 0.3066 0.3113 0.4461 0.7843 1.2564 2.3530 2.7187 1.8869 1.0042 0.4435 0.3421 0.2938 0.2272 0.1938 0.1878 0.1934 0.1983 0.2236 0.2414 0.2555 0.2730 0.2972 0.3205 0.3537 0.3891 0.4445 0.4582 0.4624 0.4470 0.4472 0.4535 0.4612 0.4244 0.3423 0.2754 0.2210 0.1575 0.1739 0.1815 0.1838 0.2117 0.2250 0.2393 0.2521 0.2515 0.2436 0.2245 0.2002 0.1827 0.1667 0.1707 0.1628 0.1597 0.1554 0.1472 0.1640 0.1759 0.1916 0.1899 0.2076 0.2087 0.2029 0.1906 0.1725 0.1923 0.2352 0.5935 0.5131 0.4074 0.4162 0.3145 0.3473 0.3020 0.4481 0.9910 1.0235 0.8502 0.7207 0.6044 0.6177 0.5167 0.5567 0.5562 0.5253 0.5858 0.6984 0.8051 0.9918 1.2376 1.5162 1.6944 1.8225 1.8306 1.3505 1.3596 1.3052 1.2396 1.0343 0.8105 0.6351 0.5023 0.4839 0.5438 0.5412 0.5853 0.6516 0.6605 0.6208 0.5712 0.5260 0.5247 0.5240 0.4545 0.4733 0.5886 0.6490 0.6803 0.7208 0.7236 0.7335 0.7468 0.7828 0.7793 1.2547
0.0952 0.1371 0.1902 0.2098 0.2322 0.2382 0.2580 0.2893 0.3820 0.6334 0.9972 1.3579 1.1335 0.5562 0.4979 0.3624 0.2598 0.1803 0.1436 0.1364 0.1472 0.1683 0.1745 0.2142 0.2131 0.2175 0.2266 0.2638 0.3103 0.3526 0.3952 0.4277 0.4181 0.3728 0.3457 0.3573 0.3101 0.2641 0.2127 0.1233 0.1434 0.1302 0.1297 0.1425 0.1536 0.1727 0.1850 0.1943 0.2023 0.2018 0.1900 0.1718 0.1390 0.1232 0.1244 0.1314 0.1282 0.1248 0.1262 0.1404 0.1437 0.1388 0.1596 0.1699 0.1834 0.1965 0.1902 0.1963 0.1911 0.1723 0.2086 0.3345 0.4083 0.1317 0.4285 0.4343 0.4266 0.7635 0.2227 0.7288 0.7859 0.6416 0.4742 0.4176 0.4352 0.4216 0.4195 0.4384 0.4608 0.5025 0.6515 0.7954 1.0258 1.2606 1.4772 1.5687 1.5582 1.1250 1.0625 1.1592 1.0868 1.0316 0.8146 0.6458 0.5049 0.4211 0.3982 0.4670 0.5159 0.5340 0.5406 0.5557 0.5255 0.4835 0.4464 0.4638 0.4966 0.5188 0.5853 0.7237 0.8226 0.8624 0.9108 0.9281 0.9440 1.0031 1.0896 0.8867 1.4461
0.1052 0.1241 0.1393 0.1356 0.1460 0.1536 0.1715 0.2114 0.2518 0.3211 0.3782 0.6067 0.5279 0.4808 0.4694 0.2682 0.1788 0.1110 0.0872 0.0865 0.0985 0.1142 0.1391 0.1813 0.1527 0.1462 0.1406 0.1833 0.2245 0.2665 0.3020 0.3318 0.3189 0.2600 0.2144 0.2345 0.1506 0.1132 0.1418 0.0761 0.1029 0.0946 0.0871 0.1015 0.1135 0.1281 0.1348 0.1396 0.1444 0.1451 0.1346 0.1248 0.0939 0.0749 0.0857 0.1004 0.1041 0.0998 0.0860 0.1061 0.1077 0.1055 0.1256 0.1404 0.1510 0.1746 0.1913 0.1994 0.2012 0.1995 0.1619 0.3413 0.5126 0.6190 0.5794 0.6453 0.7220 0.2108 0.2371 0.4492 0.5412 0.4311 0.2788 0.2893 0.3065 0.3191 0.3055 0.3075 0.3503 0.3976 0.5808 0.7550 0.9422 1.1295 1.2389 1.2322 0.9716 0.5887 0.8053 0.8844 0.8128 0.7873 0.5731 0.4795 0.3754 0.3358 0.3100 0.3638 0.4197 0.4279 0.3991 0.4205 0.4077 0.3599 0.3378 0.3563 0.4287 0.5496 0.6835 0.7739 0.8537 0.9461 1.0228 1.1015 1.2369 1.3562 1.5090 1.7026 2.1390
