NCOLS 129
NROWS 89
XLLCORNER 4477375.0000000000
YLLCORNER 5725725.0000000000
CELLSIZE 10.000000
NODATA_VALUE -99999.0000
2.1329 3.1317 4.6960 3.2255 2.4834 4.7077 4.1931 3.7404 3.1149 2.7391 2.4040 2.0521 1.7716 1.4613 1.0966 1.2538 0.9265 1.0341 1.2811 1.4603 1.6277 1.7878 1.9047 1.9712 2.0172 2.0520 2.0960 2.0882 2.1228 2.1273 2.1466 2.2127 2.3296 2.4743 2.5424 -99999.0000 0.2664 0.3940 0.5467 0.7044 0.8498 0.9741 1.0629 1.1386 1.2461 1.3419 1.3923 1.4471 1.4927 1.5204 1.5151 1.5144 1.5639 1.6136 1.6994 1.8205 1.9775 2.1129 2.2251 2.3259 2.3981 2.5100 2.6375 2.7536 2.8046 2.8712 2.9311 2.9786 2.9560 2.8437 2.7291 2.5260 2.4153 2.3078 2.3683 2.5794 2.6684 2.8237 2.9459 3.1356 3.2615 3.3345 3.4120 3.5049 3.3512 -99999.0000 -99999.0000 0.1168 0.1653 0.2208 0.2352 0.2580 0.2571 0.2990 0.3580 0.4551 0.4818 0.4429 0.4177 0.3647 0.2888 0.2284 0.1954 0.2419 0.2039 1.7538 2.5690 3.0680 3.7652 4.3531 4.7086 4.9733 1.8749 1.4292 0.7515 0.4326 0.4646 0.7855 1.0655 1.6130 1.1328 0.8541 0.7748 1.0317 0.6539 0.9180 1.2489 1.6152 1.9326
2.1579 2.4734 2.4245 2.3628 2.3147 2.3582 2.2116 1.7044 1.5402 1.4980 1.3875 1.1661 1.1229 1.0621 1.0113 0.9824 0.8855 0.8330 0.8469 0.8273 0.8387 0.8569 0.8084 0.6948 0.6391 0.6575 0.7120 1.0512 1.1460 1.3219 1.4872 1.5726 1.5770 1.4663 1.5902 -99999.0000 -99999.0000 0.3801 0.5099 0.6624 0.7589 0.8224 0.8576 0.9041 0.9182 0.8997 0.9920 1.0368 1.0688 1.1138 1.2034 1.2852 1.2944 1.3414 1.4036 1.4500 1.4751 1.5393 1.6163 1.7047 1.7365 1.7176 1.6621 1.5419 1.5918 1.5744 1.5412 1.5130 1.6496 1.9577 2.1500 2.3692 2.4567 2.5832 2.5767 2.6123 2.6470 2.6067 2.5829 2.4266 2.2202 2.0444 1.8303 1.4320 1.9758 1.9296 -99999.0000 0.1540 0.2471 0.3158 0.3332 0.3547 0.3772 0.4390 0.4989 0.5644 0.5945 0.5805 0.5347 0.4761 0.4030 0.3593 0.5060 0.2522 1.8972 2.3406 2.3703 2.3308 2.8544 2.9468 1.8728 1.4754 1.3029 1.3751 1.0712 0.6397 0.5581 0.6623 0.7859 0.7806 0.8052 0.7553 0.7095 0.7144 0.6098 0.7195 0.8555 1.2437 1.2179
2.1135 2.2771 2.1515 2.1463 2.0641 2.0016 1.7487 1.3890 1.3380 1.2796 1.1832 1.0322 0.9958 0.9456 0.9074 0.8717 0.8067 0.7426 0.7548 0.7295 0.7203 0.7300 0.7135 0.6425 0.6195 0.6725 0.7061 0.7251 0.7663 0.8352 0.9372 0.9809 1.0497 1.0722 1.0548 -99999.0000 -99999.0000 0.4111 0.5058 0.6009 0.6559 0.6653 0.6641 0.6724 0.6472 0.6371 0.6728 0.8122 0.8975 0.9855 1.0423 1.0651 1.1333 1.2567 1.3464 1.4245 1.4571 1.4300 1.4153 1.2619 1.3467 1.3426 1.2701 1.1732 1.1364 1.1079 1.1008 1.0886 1.1430 1.2076 1.3107 1.4601 1.6490 1.8340 1.9063 1.7075 1.4298 1.2348 0.9948 0.9071 0.9841 1.0561 1.0408 1.0358 0.9819 1.2197 -99999.0000 0.2261 0.3104 0.3781 0.4349 0.4773 0.5182 0.5430 0.5901 0.6372 0.6618 0.6285 0.5392 0.4971 0.4725 1.6555 2.8110 3.2919 3.3781 3.4396 3.4521 3.3537 2.9203 1.7790 1.5811 1.4198 1.3371 1.4421 1.2875 1.0736 0.7753 0.7501 0.7513 0.6937 0.7526 0.7022 0.6644 0.6747 0.6489 0.7353 0.6491 1.0989 1.2788
2.0673 2.0594 1.9272 1.8872 1.8044 1.6322 1.4162 1.2369 1.1312 1.0560 0.9786 0.8815 0.8312 0.8049 0.7537 0.7489 0.6937 0.6709 0.6505 0.6603 0.6683 0.6744 0.6543 0.6261 0.6521 0.7210 0.7803 0.8246 0.8877 0.9705 1.0085 1.0498 1.0661 1.0096 1.0120 -99999.0000 -99999.0000 0.2832 0.3859 0.4948 0.5852 0.5860 0.6071 0.6248 0.6576 0.6877 0.7276 0.7859 0.8323 0.9080 0.9545 1.0292 1.1538 1.2541 1.3835 1.4423 1.4491 1.4099 1.4056 1.4077 1.3427 1.2643 1.2054 1.1875 1.1473 1.1238 1.1180 1.1409 1.1354 1.1737 1.2736 1.3443 1.4262 1.4105 1.3164 1.2186 1.1160 1.0418 0.9728 0.9051 0.8346 0.7992 0.8057 0.8047 0.8254 0.8956 -99999.0000 -99999.0000 0.3977 0.5060 0.5822 0.6203 0.6613 0.6964 0.6798 0.6724 0.6465 0.6254 0.5503 0.4077 3.1533 3.5938 3.1124 2.9817 2.7775 2.3599 1.9733 1.7202 1.5230 1.4346 1.4341 1.3305 1.2793 1.3185 1.2917 1.1554 0.8800 0.7861 0.7319 0.7628 0.7284 0.6993 0.6881 0.6968 0.7238 0.8071 0.7552 0.8851 1.3487
1.6823 1.5930 1.5240 1.4971 1.3679 1.2489 1.1232 0.9899 0.9609 0.8865 0.7257 0.6380 0.6205 0.6124 0.6175 0.5515 0.5966 0.5293 0.4642 0.5713 0.6324 0.6460 0.6321 0.6007 0.6307 0.6865 0.6987 0.7095 0.7266 0.7675 0.7796 0.8454 0.9037 0.9456 1.0249 1.0514 -99999.0000 0.2660 0.4082 0.5284 0.6299 0.7181 0.7300 0.7555 0.7829 0.8205 0.8362 0.8916 0.9423 1.0056 1.0653 1.1856 1.2957 1.4612 1.4782 1.4635 1.3680 1.3648 1.3578 1.3388 1.2691 1.2183 1.1909 1.1623 1.1450 1.1459 1.1398 1.1338 1.1592 1.1817 1.1738 1.1342 1.0260 0.9641 0.9692 0.9388 0.9803 0.9482 0.8847 0.7837 0.7618 0.7513 0.7241 0.7506 0.7630 0.8258 -99999.0000 -99999.0000 0.5005 0.6399 0.7138 0.7533 0.7478 0.7399 0.7034 0.6643 2.2976 2.9913 3.3789 3.5592 2.8519 1.6493 1.5930 1.8308 1.7752 1.6438 1.6027 1.5085 1.3853 1.4813 1.4236 1.3470 1.3122 1.2010 1.1979 1.1904 0.9357 0.8214 0.7700 0.7982 0.7455 0.8040 0.7767 0.7707 0.7822 0.7683 0.7467 0.8645 1.3077
1.0566 1.2522 1.3594 1.0110 0.9215 0.8676 0.8049 0.7718 0.7362 0.7012 0.5676 0.5136 0.5059 0.5040 0.5554 0.5785 0.5792 0.6092 0.6677 0.6770 0.7213 0.7316 0.7485 0.7417 0.7464 0.7409 0.7701 0.7863 0.8538 0.8861 0.9539 1.0379 1.0849 1.1223 1.1150 1.1228 -99999.0000 -99999.0000 0.3907 0.5585 0.6573 0.7430 0.7955 0.8277 0.8442 0.8513 0.9152 0.9459 0.9980 1.0494 1.2159 1.3263 1.5040 1.5004 1.4657 1.4071 1.4070 1.3539 1.2707 1.1050 1.0454 1.0510 1.0337 0.9958 0.9757 0.9393 0.9262 0.9229 0.9116 0.8992 0.8474 0.8177 0.7494 0.7807 0.7963 0.7981 0.8051 0.8079 0.7259 0.6732 0.6785 0.6947 0.7470 0.7330 0.7870 0.8577 0.8263 -99999.0000 0.5703 0.7220 0.7806 0.8190 0.8525 0.7085 2.7238 3.0682 2.6339 2.3969 1.6742 1.6158 1.5886 1.6025 1.6519 1.7024 1.6801 1.5884 1.5604 1.5468 1.3853 1.3876 1.3578 1.3319 1.2470 1.2063 1.1205 1.1462 0.9982 0.8329 0.8384 0.8104 0.8306 0.8205 0.8031 0.7801 0.7833 0.6985 0.7496 0.9813 1.2094
0.7477 0.9322 1.0794 0.7973 0.7009 0.6546 0.6498 0.6300 0.6275 0.6027 0.5554 0.5367 0.5187 0.5233 0.5940 0.6698 0.6669 0.6832 0.7011 0.7143 0.7243 0.7259 0.7316 0.7434 0.7357 0.7709 0.7935 0.8809 0.9257 0.9733 1.0627 1.1082 1.1206 1.1831 1.1778 1.2398 -99999.0000 -99999.0000 0.4366 0.5745 0.6747 0.7790 0.8362 0.8471 0.8809 0.9180 0.9739 1.0103 1.0626 1.2499 1.4581 1.5608 1.5416 1.4118 1.3070 1.2054 1.0968 0.9804 0.8764 0.7970 0.7830 0.7726 0.7476 0.7434 0.7394 0.7214 0.7340 0.7323 0.7292 0.7271 0.6999 0.7205 0.7081 0.7384 0.7862 0.7656 0.7556 0.6986 0.6584 0.6262 0.6759 0.7435 0.7899 0.8384 0.8572 0.9442 0.9832 -99999.0000 -99999.0000 0.6647 0.7676 0.8332 2.0861 2.6379 1.5955 1.5368 1.4861 1.3604 1.4991 1.5869 1.5211 1.5617 1.6912 1.6219 1.6780 1.5780 1.4501 1.5244 1.4036 1.3203 1.2897 1.2655 1.1832 1.1871 1.0673 1.1014 1.0288 0.8993 0.8532 0.8399 0.8353 0.8515 0.8105 0.7811 0.7630 0.7244 0.7387 0.9179 1.1813
0.6298 0.7119 0.8230 0.6619 0.6092 0.5566 0.5840 0.5646 0.5515 0.5398 0.5294 0.5146 0.5005 0.5673 0.6343 0.6486 0.6129 0.6307 0.6703 0.7512 0.7474 0.7833 0.7997 0.8325 0.8808 0.9060 0.9580 0.9970 1.0185 1.0653 1.0991 1.1261 1.1731 1.2393 1.2982 1.3179 -99999.0000 -99999.0000 0.4591 0.6284 0.6841 0.7503 0.8136 0.8729 0.9461 1.0506 1.1278 1.1709 1.3217 1.5133 1.4720 1.4163 1.2811 1.1285 1.0086 0.9309 0.8645 0.7942 0.7378 0.7240 0.7025 0.6833 0.6761 0.6691 0.6658 0.6685 0.6889 0.6917 0.6749 0.6692 0.6552 0.7021 0.7117 0.7288 0.7370 0.7345 0.7155 0.7208 0.6971 0.6921 0.7208 0.8154 0.9148 0.9665 0.9881 1.0399 1.0996 -99999.0000 -99999.0000 0.4194 0.9375 1.8188 1.6818 1.5807 1.6746 1.6658 1.3700 1.3478 1.4972 1.6376 1.5173 1.5068 1.6764 1.6398 1.5844 1.6039 1.3788 1.4328 1.3875 1.2491 1.2015 1.1843 1.1441 1.1426 1.0681 1.0523 1.0476 0.9383 0.8764 0.8463 0.8699 0.8424 0.8115 0.7788 0.7338 0.6941 0.6750 0.8773 1.1671
0.5406 0.5765 0.5844 0.5827 0.5176 0.4869 0.5039 0.4710 0.4713 0.4571 0.4453 0.4872 0.5347 0.5924 0.5998 0.5805 0.5940 0.6244 0.7080 0.7889 0.8552 0.8966 0.9218 0.9715 0.9839 1.0281 1.0639 1.1196 1.1210 1.1398 1.1973 1.1987 1.2570 1.3512 1.4044 1.3934 1.3361 -99999.0000 0.4510 0.6005 0.6349 0.7321 0.8844 0.9997 1.1525 1.2371 1.2863 1.3835 1.4563 1.3019 1.1632 1.0195 0.9345 0.8921 0.8071 0.7520 0.7255 0.6818 0.6744 0.6761 0.6545 0.6270 0.6136 0.6221 0.6242 0.6341 0.6252 0.6166 0.6057 0.6344 0.6587 0.6799 0.6921 0.6804 0.7230 0.7355 0.7392 0.7494 0.8181 0.8054 0.8296 0.9393 1.0207 1.1130 1.1145 1.1371 1.1962 2.5359 -99999.0000 0.5053 1.0730 1.6523 1.6082 1.6598 1.7831 1.6622 1.4040 1.3437 1.4601 1.6504 1.5090 1.4520 1.5824 1.6187 1.5122 1.5471 1.3341 1.3107 1.3173 1.1741 1.1294 1.1087 1.0722 1.1002 1.0558 1.0410 1.0368 0.9644 0.9082 0.8886 0.8727 0.8308 0.7932 0.7547 0.7048 0.6640 0.6347 0.7316 1.2028
0.5011 0.4909 0.4902 0.5089 0.4755 0.4613 0.4621 0.4602 0.4240 0.4030 0.4177 0.4877 0.5540 0.5492 0.5658 0.5697 0.6051 0.6385 0.7227 0.7980 0.8862 0.9997 1.0951 1.1438 1.1526 1.2080 1.2660 1.2507 1.2875 1.2988 1.2736 1.3248 1.3523 1.4171 1.4538 1.3824 1.3278 -99999.0000 0.4427 0.5501 0.7057 0.8866 1.0748 1.1807 1.2472 1.2482 1.2241 1.2299 1.2001 1.0223 0.8999 0.8952 0.8410 0.7709 0.7071 0.6697 0.6510 0.6489 0.6513 0.6501 0.6238 0.6005 0.6014 0.5974 0.5908 0.5857 0.5862 0.5895 0.6101 0.6507 0.6512 0.6714 0.6878 0.6699 0.7116 0.7718 0.7893 0.8666 0.9091 0.9754 0.9728 1.0960 1.1778 1.2470 1.2626 1.4704 5.8116 13.1500 -99999.0000 -99999.0000 1.1146 1.5561 1.7501 1.6854 1.7674 1.6780 1.4492 1.3212 1.3513 1.5952 1.4813 1.3846 1.4592 1.5270 1.4431 1.4264 1.2684 1.1989 1.2127 1.0984 1.0477 1.0341 1.0452 1.0372 1.0685 1.0337 1.0474 1.0035 0.9253 0.9257 0.8615 0.8092 0.7810 0.7364 0.6700 0.6368 0.6260 0.7825 1.1571
0.4665 0.4464 0.4460 0.4905 0.4607 0.4573 0.4543 0.4338 0.4157 0.4423 0.4711 0.5507 0.5163 0.5291 0.5583 0.5767 0.6183 0.6483 0.7168 0.7929 0.8739 0.9646 1.0737 1.1739 1.2755 1.3307 1.3419 1.3837 1.4384 1.4770 1.4456 1.3797 1.4684 1.4985 1.4757 1.3417 1.4676 -99999.0000 -99999.0000 0.5427 0.8281 0.9888 1.0549 1.1425 1.0437 1.0344 0.9955 0.9680 0.9534 0.9328 0.8871 0.8659 0.7813 0.7010 0.6386 0.6332 0.6475 0.6509 0.6462 0.6393 0.6380 0.6196 0.5928 0.5779 0.5669 0.5625 0.5777 0.5809 0.5953 0.6347 0.6633 0.6958 0.6851 0.6805 0.7125 0.7812 0.8796 0.9544 1.0450 1.1123 1.1707 1.2192 1.2940 1.6387 3.2696 9.8998 13.5465 7.4134 -99999.0000 -99999.0000 1.1326 1.5672 1.7566 1.6412 1.7095 1.6313 1.4747 1.2532 1.2555 1.4247 1.4309 1.2932 1.3213 1.4205 1.3503 1.3025 1.2102 1.0859 1.1163 1.0360 0.9873 0.9867 1.0333 1.0162 1.0688 1.0511 1.0686 1.0167 0.9818 0.9124 0.8447 0.8002 0.7573 0.7239 0.6835 0.6904 0.7221 0.6665 1.1154
0.4270 0.4065 0.4198 0.4577 0.4379 0.4350 0.4413 0.4235 0.4275 0.4747 0.5078 0.4737 0.4795 0.5122 0.5519 0.5810 0.6071 0.6339 0.6805 0.7480 0.8227 0.8925 0.9547 0.9514 0.9527 0.9387 0.9939 1.1062 1.1801 1.2582 1.3816 1.4674 1.4677 1.3838 1.4182 1.6010 1.6819 -99999.0000 -99999.0000 0.6486 0.8599 0.9024 0.9246 0.9812 0.9469 0.9473 0.9620 0.9454 0.9188 0.9182 0.8509 0.7615 0.7342 0.6859 0.6401 0.6381 0.6465 0.6577 0.6570 0.6634 0.6477 0.6264 0.6075 0.6081 0.5978 0.5880 0.5952 0.5967 0.6065 0.6424 0.6480 0.6528 0.7004 0.7317 0.7621 0.8565 0.9619 1.0330 1.1703 1.2629 1.3219 1.5819 3.3066 7.3295 12.6663 11.7816 2.1667 1.7779 -99999.0000 -99999.0000 1.0844 1.5078 1.7013 1.5986 1.6025 1.6069 1.4520 1.2152 1.1350 1.2761 1.3529 1.2082 1.1915 1.2914 1.2582 1.1650 1.1742 1.0043 1.0228 1.0005 0.9407 0.9692 1.0330 1.0325 1.0769 1.0915 1.0731 1.0271 0.9698 0.9051 0.8373 0.7915 0.7371 0.7223 0.7099 0.7408 0.7108 0.5924 1.0541
0.3776 0.3635 0.3889 0.4136 0.4017 0.4048 0.4221 0.4197 0.4238 0.4886 0.4618 0.4525 0.4824 0.5130 0.5558 0.5823 0.6053 0.6340 0.6634 0.7228 0.7614 0.8236 0.8497 0.8506 0.8485 0.8702 0.8873 0.9070 0.9160 0.9553 1.0062 1.0785 1.0098 1.0743 1.0886 1.2344 1.1091 0.9881 -99999.0000 0.6601 0.7916 0.7760 0.8171 0.8988 0.9079 0.9304 0.9366 0.8992 0.8904 0.8629 0.7826 0.7258 0.6938 0.7004 0.6778 0.6355 0.6618 0.6947 0.7060 0.6946 0.6928 0.6735 0.6610 0.6539 0.6346 0.6150 0.6110 0.6129 0.6007 0.6219 0.6718 0.7243 0.7614 0.8310 0.8560 0.9559 1.0847 1.1584 1.2685 1.3443 1.7496 8.8897 10.4119 12.3667 8.9130 2.5518 2.2218 1.8452 1.4363 -99999.0000 0.9717 1.3627 1.6356 1.5231 1.4936 1.5559 1.3988 1.1692 1.0555 1.1241 1.2865 1.1449 1.0861 1.1622 1.2059 1.0873 1.0733 0.9574 0.9479 0.9818 0.9306 0.9722 1.0284 1.0472 1.0705 1.1006 1.0770 1.0155 0.9657 0.9011 0.8431 0.7847 0.7648 0.7561 0.7727 0.7304 0.6593 0.5380 0.9837
0.3260 0.3155 0.3451 0.3713 0.3674 0.3964 0.4021 0.4028 0.4611 0.4732 0.4303 0.4554 0.4830 0.5124 0.5611 0.5850 0.6135 0.6352 0.6416 0.6770 0.6868 0.7382 0.7785 0.7920 0.8081 0.8318 0.8397 0.8477 0.8451 0.8645 0.8737 0.8960 0.9105 0.8925 0.8875 0.9554 0.9072 0.8270 -99999.0000 0.4991 0.6241 0.6715 0.7298 0.8219 0.8511 0.8665 0.8599 0.8389 0.8403 0.8100 0.7789 0.6682 0.7328 0.7149 0.6999 0.6941 0.7245 0.7502 0.7536 0.7602 0.7470 0.7367 0.7031 0.6795 0.6693 0.6299 0.6529 0.6220 0.6264 0.6650 0.7252 0.7887 0.9043 0.9943 0.9911 1.0822 1.2200 1.2692 1.3680 1.7551 8.0173 12.0251 10.4892 5.8539 3.1383 2.5509 2.2174 1.8949 1.5378 -99999.0000 -99999.0000 1.2208 1.5169 1.4664 1.3959 1.4798 1.3516 1.1749 1.0124 1.0001 1.1680 1.1291 1.0303 1.0451 1.1173 1.0361 0.9918 0.9389 0.8947 0.9790 0.9399 0.9826 1.0233 1.0543 1.0651 1.1121 1.0731 1.0047 0.9606 0.9001 0.8375 0.7752 0.7610 0.7677 0.7546 0.6503 0.5628 0.5064 0.9268
0.2747 0.2593 0.3065 0.3354 0.3573 0.3703 0.3906 0.4214 0.4372 0.4171 0.4124 0.4471 0.4797 0.5101 0.5500 0.5822 0.6053 0.6129 0.6048 0.6125 0.6080 0.6724 0.7313 0.7565 0.7859 0.7854 0.7860 0.7773 0.7675 0.7801 0.7922 0.8047 0.8176 0.8268 0.8015 0.8138 0.7549 0.7304 -99999.0000 -99999.0000 0.4882 0.6188 0.6526 0.7276 0.7862 0.8035 0.8237 0.8245 0.8132 0.7934 0.7648 0.7206 0.7161 0.7441 0.7513 0.7558 0.7678 0.7975 0.8146 0.8025 0.7988 0.7721 0.7566 0.7577 0.7403 0.6917 0.6712 0.6759 0.6590 0.7413 0.8276 0.9154 1.0271 1.1442 1.1946 1.2636 1.3293 1.3708 2.5159 10.1449 12.1016 5.9951 5.9700 3.2218 2.9305 2.6838 2.1285 1.9845 1.6833 -99999.0000 -99999.0000 1.0788 1.3657 1.4289 1.2815 1.3728 1.2967 1.1621 1.0029 0.9372 1.0618 1.1333 0.9938 0.9672 1.0515 1.0023 0.9143 0.9861 0.8938 0.9628 0.9852 0.9870 1.0384 1.0773 1.0856 1.0996 1.0369 0.9966 0.9505 0.8945 0.8358 0.7647 0.7718 0.7726 0.6639 0.6189 0.5467 0.5454 0.8580
0.2293 0.2297 0.2731 0.3189 0.3374 0.3773 0.3828 0.3967 0.4021 0.3799 0.4061 0.4267 0.4713 0.5086 0.5467 0.5771 0.5841 0.5870 0.5633 0.5662 0.5736 0.6198 0.6779 0.7164 0.7374 0.7254 0.7116 0.7101 0.7070 0.7227 0.7291 0.7333 0.7355 0.7305 0.7124 0.6920 0.6498 0.6481 -99999.0000 -99999.0000 0.4266 0.5856 0.6261 0.6609 0.7552 0.7713 0.7841 0.8029 0.7937 0.7766 0.7911 0.7242 0.7596 0.7981 0.8196 0.8216 0.8274 0.8524 0.8638 0.8565 0.8186 0.8058 0.8067 0.8038 0.8313 0.7752 0.7795 0.7962 0.7909 0.8456 0.9372 1.0667 1.1608 1.2746 1.3600 1.3833 1.5966 4.3002 11.0715 11.5941 2.6044 2.4326 3.3575 2.6843 2.8556 2.6923 2.1918 2.0266 1.7291 1.3751 -99999.0000 0.9233 1.1571 1.3442 1.2151 1.2420 1.2420 1.1623 0.9909 0.9259 0.9927 1.0913 0.9863 0.9263 0.9970 0.9817 0.9324 0.9790 0.9311 0.9687 1.0045 0.9950 1.0458 1.0899 1.0755 1.0575 1.0473 0.9970 0.9440 0.8888 0.8039 0.7624 0.7933 0.6656 0.6225 0.5779 0.5511 0.5635 0.7548
0.2021 0.2430 0.2794 0.3158 0.3272 0.3426 0.3574 0.3649 0.3521 0.3656 0.3996 0.4244 0.4749 0.5149 0.5416 0.5600 0.5691 0.5370 0.5265 0.5454 0.5454 0.5624 0.6200 0.6554 0.6598 0.6505 0.6485 0.6548 0.6668 0.6774 0.6728 0.6584 0.6513 0.6424 0.6144 0.6020 0.5974 0.5646 -99999.0000 -99999.0000 0.3992 0.5542 0.5828 0.6165 0.7100 0.7609 0.7869 0.7960 0.7704 0.7670 0.7586 0.7548 0.7791 0.8184 0.8584 0.8845 0.8724 0.8786 0.9211 0.9007 0.9066 0.8914 0.8626 0.8531 0.8877 0.9277 0.9224 0.9589 0.9863 1.0293 1.0798 1.2206 1.2541 1.4152 1.5279 1.9362 6.6444 12.2157 10.4860 2.8824 3.0817 2.5158 2.4259 2.5544 2.6943 2.7132 2.2125 2.0813 1.7872 1.4214 -99999.0000 -99999.0000 1.0468 1.2055 1.1136 1.1091 1.2107 1.1030 1.0339 0.9191 0.9439 1.0468 0.9867 0.9419 0.9352 0.9953 0.9725 0.9676 0.9460 0.9899 1.0301 1.0214 1.1048 1.0894 1.0564 1.0381 1.0207 0.9644 0.9402 0.8555 0.8056 0.8125 0.6699 0.6135 0.5784 0.5432 0.5469 0.5041 0.6166
0.1971 0.2489 0.2672 0.2907 0.3026 0.3125 0.3283 0.3236 0.3343 0.3614 0.3764 0.4189 0.4736 0.5085 0.5223 0.5250 0.5092 0.5059 0.5199 0.5041 0.4835 0.5047 0.5624 0.5969 0.5937 0.6086 0.5992 0.6116 0.6196 0.6207 0.6148 0.5992 0.5995 0.5845 0.5410 0.5631 0.5699 0.5468 0.5558 -99999.0000 0.3733 0.4782 0.5559 0.5754 0.6485 0.7393 0.7574 0.7342 0.7492 0.7824 0.7988 0.7862 0.7708 0.8345 0.8708 0.9032 0.9153 0.9260 0.9521 0.9575 0.8985 0.8655 0.8856 0.8939 0.9557 0.9897 1.0472 1.1099 1.1125 1.1667 1.1955 1.2832 1.3493 1.5002 3.4333 9.5520 12.0160 7.2090 2.9600 3.0505 3.0291 2.6449 2.1792 2.4697 2.5089 2.6846 2.2880 2.0480 1.8932 1.4756 -99999.0000 -99999.0000 0.9311 1.0636 1.0420 1.0228 1.1425 1.0842 1.0312 0.9365 0.9112 1.0191 1.0075 0.9589 0.9365 1.0104 0.9835 0.9514 1.0019 1.0349 1.0480 1.0909 1.0767 1.0538 1.0241 1.0098 0.9971 0.9775 0.9024 0.8710 0.8318 0.6964 0.6176 0.5380 0.5203 0.5081 0.4968 0.5117 0.5269
0.1964 0.2461 0.2555 0.2729 0.2775 0.2919 0.3006 0.3151 0.3292 0.3431 0.3717 0.4089 0.4461 0.4871 0.5009 0.5054 0.5165 0.5200 0.5057 0.5010 0.4522 0.4677 0.5127 0.5496 0.5663 0.5574 0.5623 0.5616 0.5638 0.5640 0.5525 0.5445 0.5527 0.5509 0.5389 0.5315 0.5526 0.5344 0.5387 -99999.0000 -99999.0000 0.4130 0.5368 0.5642 0.6078 0.6845 0.7308 0.7537 0.7473 0.7536 0.7725 0.7864 0.8004 0.8036 0.8441 0.8816 0.8950 0.8957 0.9268 0.9477 0.9623 0.8863 0.8911 0.9242 0.9981 1.0895 1.1686 1.2513 1.2809 1.3179 1.3445 1.4434 2.0063 5.7599 12.2413 10.4670 3.9648 2.9860 3.1511 3.0237 2.8979 2.7338 2.2310 2.3201 2.3850 2.5907 2.3193 1.9852 1.9334 1.6254 -99999.0000 -99999.0000 0.7876 0.9247 0.9825 0.9462 1.0730 1.0550 1.0337 0.9621 0.9121 0.9829 1.0132 0.9839 0.9704 1.0218 0.9993 0.9982 1.0605 1.0473 1.0897 1.0718 1.0484 1.0258 1.0076 0.9982 0.9932 0.9735 0.9225 0.8242 0.7426 0.6392 0.5471 0.5161 0.4587 0.4901 0.4736 0.5066 0.6393
0.1901 0.2434 0.2442 0.2495 0.2661 0.2872 0.2997 0.2985 0.3198 0.3320 0.3512 0.3614 0.4017 0.4631 0.4802 0.4845 0.5070 0.4981 0.4860 0.4208 0.4005 0.4506 0.4833 0.5113 0.5330 0.5213 0.5082 0.5056 0.4974 0.4940 0.5048 0.5273 0.5320 0.5468 0.5277 0.5312 0.5500 0.5482 0.5817 -99999.0000 -99999.0000 0.3894 0.5368 0.5662 0.6145 0.6821 0.7100 0.7298 0.7438 0.7516 0.7701 0.8219 0.8413 0.8295 0.8624 0.8883 0.8883 0.9020 0.9603 1.0219 1.0423 1.0290 1.0063 1.0234 1.0730 1.1632 1.2894 1.3668 1.4069 1.5044 1.8269 4.0174 9.2195 12.0637 6.3423 2.8730 2.9550 3.0687 3.1721 3.0108 2.8589 2.6915 2.3505 2.1904 2.2437 2.4373 2.3108 1.9719 1.9027 1.6539 1.3634 -99999.0000 0.6204 0.7839 0.9199 0.8995 0.9843 1.0783 1.0103 0.9779 0.9330 0.9786 1.0196 1.0024 1.0236 1.0271 1.0447 1.0425 1.0741 1.0916 1.0793 1.0521 1.0253 1.0081 1.0039 1.0124 1.0105 0.9693 0.8849 0.7728 0.6200 0.5671 0.4949 0.4412 0.4379 0.4431 0.4847 0.5421 0.8096
0.1642 0.2474 0.2478 0.2503 0.2641 0.2776 0.2873 0.2832 0.2823 0.2988 0.3243 0.3537 0.3923 0.4522 0.4886 0.4933 0.4680 0.4659 0.4361 0.4059 0.4204 0.4632 0.4842 0.4930 0.4828 0.4799 0.4702 0.4552 0.4475 0.4650 0.4786 0.4874 0.5204 0.5466 0.5533 0.5620 0.5862 0.6381 0.6377 -99999.0000 -99999.0000 0.3953 0.5220 0.5606 0.5975 0.6706 0.7373 0.7402 0.7592 0.7696 0.8221 0.8614 0.9196 0.8506 0.8993 0.9315 0.9821 0.9773 1.0300 1.1397 1.2075 1.1889 1.1681 1.1789 1.1959 1.2355 1.3563 1.4712 1.7689 4.1654 7.0305 11.3239 10.3309 2.9124 2.8946 2.9398 2.9966 3.0191 3.0836 2.9705 2.7371 2.6646 2.4129 2.0494 2.1527 2.2047 2.2994 1.9259 1.8466 1.6956 1.3897 -99999.0000 -99999.0000 0.7041 0.8433 0.8739 0.9273 1.0562 0.9942 0.9981 0.9393 0.9587 1.0203 1.0331 1.0538 1.0502 1.0756 1.0675 1.0922 1.0933 1.0650 1.0383 1.0166 1.0114 1.0267 1.0348 0.9950 0.8832 0.8114 0.6618 0.6075 0.4622 0.4540 0.4358 0.4155 0.4748 0.5691 0.6228 0.9982
0.1379 0.1133 0.2565 0.2403 0.2649 0.2556 0.2584 0.2857 0.3042 0.3204 0.3450 0.3791 0.4300 0.4850 0.4960 0.4863 0.4715 0.4504 0.4433 0.4354 0.4486 0.4820 0.4945 0.4849 0.4771 0.4596 0.4324 0.4082 0.4123 0.4398 0.4623 0.4931 0.5270 0.5604 0.5765 0.5946 0.6332 0.6691 0.6707 0.6944 -99999.0000 0.4078 0.4993 0.5912 0.6243 0.7014 0.7604 0.7847 0.7939 0.8027 0.8594 0.9260 0.9935 0.9433 0.9835 1.0497 1.1359 1.1767 1.1922 1.2740 1.3806 1.3885 1.3372 1.3409 1.3404 1.3209 1.8644 3.7897 7.7000 10.3534 10.9260 7.4110 3.1417 2.7728 2.8772 3.0255 2.9593 2.9403 3.0449 2.9242 2.6799 2.5928 2.4140 2.0341 2.0185 2.0379 2.2186 1.9372 1.7431 1.6994 1.4955 -99999.0000 -99999.0000 0.6332 0.7655 0.8643 0.8782 1.0224 0.9895 0.9915 0.9581 0.9360 1.0075 1.0786 1.0741 1.0687 1.0981 1.0960 1.1058 1.0871 1.0561 1.0269 1.0258 1.0453 1.0483 0.9551 0.8891 0.7900 0.6829 0.6008 0.4960 0.4278 0.4312 0.4564 0.4847 0.5699 0.6880 0.7396 1.1978
0.0457 0.0833 0.1727 0.2399 0.2493 0.2586 0.2738 0.2986 0.3179 0.3516 0.3926 0.4264 0.4802 0.5240 0.5266 0.5019 0.4713 0.4683 0.4413 0.4404 0.4828 0.5113 0.4978 0.4723 0.4445 0.4303 0.4134 0.4048 0.4097 0.4275 0.4579 0.4921 0.5375 0.5786 0.6063 0.6164 0.6444 0.6857 0.7196 0.7335 -99999.0000 -99999.0000 0.4829 0.6193 0.6790 0.7292 0.8185 0.8425 0.8933 0.8892 0.9174 0.9694 1.0739 1.1187 1.1564 1.2584 1.3582 1.4101 1.3834 1.4187 1.5357 1.5722 1.5044 1.6552 3.2608 6.1069 7.3478 10.0508 9.8089 8.1956 4.3952 3.2945 3.1382 2.7438 2.8725 3.0475 2.8951 2.9313 2.9277 2.8315 2.6234 2.5320 2.3706 2.0238 1.8927 1.8588 2.0954 1.9525 1.7150 1.6391 1.5052 1.2736 -99999.0000 0.5327 0.6798 0.8313 0.8599 0.9605 1.0004 0.9656 0.9629 0.9188 1.0074 1.0877 1.0948 1.0909 1.1180 1.1111 1.1009 1.0768 1.0457 1.0331 1.0609 1.0555 0.9553 0.8931 0.7589 0.6748 0.5730 0.5283 0.4542 0.4476 0.4924 0.5687 0.6420 0.7130 0.8227 0.8908 1.4053
0.0592 0.0965 0.1657 0.2221 0.2482 0.2672 0.2864 0.3113 0.3445 0.3787 0.4246 0.4602 0.4955 0.5381 0.5521 0.5294 0.5191 0.4684 0.4683 0.4729 0.5246 0.5518 0.5494 0.5030 0.4559 0.4172 0.4006 0.3869 0.3935 0.4341 0.4606 0.4862 0.5371 0.5827 0.6206 0.6545 0.6829 0.7112 0.7204 0.7578 -99999.0000 -99999.0000 0.4721 0.6598 0.7447 0.8271 0.9316 0.9834 1.0269 1.0347 1.0449 1.1098 1.2117 1.2783 1.3402 1.4881 1.6107 1.6214 1.6080 1.6334 2.1349 4.0234 6.3624 8.3061 9.1133 9.2017 9.2639 7.5723 5.0654 3.8927 3.5634 3.3064 3.0241 2.7768 2.7948 3.0032 2.8843 2.8527 2.7944 2.7559 2.5696 2.4037 2.3060 2.0687 1.7473 1.7907 1.9253 1.8917 1.6995 1.6292 1.4956 1.2944 -99999.0000 -99999.0000 0.6386 0.7858 0.8488 0.8846 0.9860 0.9567 0.9575 0.9459 0.9975 1.0818 1.1159 1.1143 1.1135 1.1164 1.0974 1.0685 1.0390 1.0424 1.0323 0.9510 0.8980 0.7693 0.6795 0.5900 0.5680 0.5375 0.5737 0.5586 0.6446 0.7431 0.8210 0.8593 0.9520 1.0759 1.7789
0.0506 0.1046 0.1822 0.2306 0.2580 0.2798 0.3167 0.3474 0.3803 0.4135 0.4526 0.4783 0.5214 0.5490 0.5697 0.5366 0.5073 0.4942 0.4838 0.5335 0.5670 0.5737 0.5695 0.5359 0.4564 0.4270 0.4187 0.4121 0.4154 0.4494 0.4888 0.5268 0.5619 0.6081 0.6476 0.6938 0.7164 0.7552 0.8355 0.7979 -99999.0000 -99999.0000 0.5497 0.7211 0.8643 0.9712 1.0705 1.1635 1.2133 1.2435 1.2398 1.2737 1.3531 1.4791 1.4909 1.6896 1.8274 1.9217 2.3961 4.6585 7.3397 8.5051 8.1708 7.6094 6.7437 5.5255 4.6220 4.4225 3.9654 3.7440 3.4718 3.3283 2.9459 2.8022 2.7319 2.9061 2.8642 2.7420 2.6354 2.5991 2.4832 2.3115 2.1910 2.0638 1.7375 1.7032 1.7518 1.8635 1.6961 1.5886 1.5158 1.3225 -99999.0000 -99999.0000 0.6008 0.7497 0.8154 0.8478 0.9512 0.9588 0.9465 0.9650 0.9937 1.0719 1.1248 1.1259 1.1131 1.1001 1.0813 1.0494 1.0466 1.0355 0.9638 0.8937 0.7814 0.7205 0.6345 0.6072 0.6254 0.6915 0.7325 0.7720 0.8083 0.9097 1.0046 1.0322 1.4274 2.6355 4.4641
0.0746 0.1252 0.1964 0.2502 0.2856 0.3196 0.3451 0.3842 0.4171 0.4502 0.4979 0.5292 0.5698 0.5998 0.5784 0.5583 0.4996 0.5026 0.5653 0.6140 0.6363 0.6140 0.5876 0.5565 0.5106 0.4593 0.4420 0.4427 0.4618 0.4851 0.5198 0.5619 0.6073 0.6630 0.6896 0.7404 0.7550 0.8185 0.8949 0.8819 0.8284 -99999.0000 0.6459 0.8373 1.0157 1.1416 1.2460 1.3748 1.4265 1.4620 1.4585 1.4511 1.4874 1.6280 1.6398 1.8341 2.3683 3.9139 6.8032 7.7511 7.2501 5.8244 4.5456 4.1292 4.2836 4.0598 4.0737 4.1632 3.6699 3.6887 3.4747 3.2805 2.9657 2.7943 2.6043 2.7570 2.7256 2.6356 2.5340 2.4176 2.3695 2.1786 2.1147 2.0517 1.6874 1.6539 1.6456 1.8144 1.6664 1.5684 1.5130 1.4180 -99999.0000 -99999.0000 0.5635 0.7017 0.7680 0.8357 0.9133 0.9513 0.9460 0.9752 0.9763 1.0659 1.1171 1.1280 1.0973 1.0806 1.0684 1.0319 1.0148 0.9512 0.8964 0.8030 0.7175 0.7003 0.6606 0.6933 0.7751 0.8699 0.9597 0.9918 0.9965 1.0564 1.1299 2.7955 4.5497 6.7104 10.0886
0.0854 0.1360 0.2072 0.2705 0.3054 0.3406 0.3770 0.4186 0.4563 0.4886 0.5423 0.5854 0.6184 0.6382 0.6180 0.5804 0.5569 0.5514 0.6421 0.6920 0.7016 0.6618 0.6011 0.5923 0.5674 0.5228 0.4871 0.4890 0.5104 0.5345 0.5788 0.6178 0.6528 0.7026 0.7480 0.8077 0.8387 0.8844 0.9535 0.9995 0.9799 -99999.0000 0.7958 0.9674 1.1691 1.3199 1.4188 1.5482 1.5902 1.6565 1.6216 1.6346 1.6301 1.8589 2.0099 3.2357 5.5707 7.0918 6.8087 5.3108 4.1794 3.9977 4.1173 4.0077 4.2510 3.9493 3.8672 3.8471 3.5264 3.5481 3.4085 3.2700 2.9361 2.7632 2.5008 2.5974 2.5791 2.4718 2.3868 2.3350 2.2221 2.1220 2.0357 1.9558 1.7119 1.6005 1.5553 1.7332 1.6402 1.5462 1.4783 1.4342 1.3008 -99999.0000 0.4984 0.6347 0.7536 0.8101 0.8854 0.9448 0.9384 0.9820 0.9878 1.0458 1.1107 1.1160 1.0658 1.0529 1.0354 0.9765 0.9757 0.9040 0.8538 0.7258 0.6560 0.7205 0.7898 0.8495 0.9647 1.0864 1.1654 1.2169 1.1830 1.3444 4.8110 6.7078 7.5884 7.7766 7.3690
0.0916 0.1477 0.2224 0.2804 0.3213 0.3600 0.4000 0.4449 0.4935 0.5273 0.5831 0.6115 0.6454 0.6637 0.6266 0.6154 0.5788 0.5973 0.6865 0.7417 0.7218 0.7059 0.6433 0.6042 0.6013 0.6013 0.5905 0.5923 0.6085 0.6184 0.6575 0.7066 0.7386 0.7912 0.8352 0.8925 0.9611 0.9966 1.0734 1.0953 1.1476 -99999.0000 -99999.0000 1.0581 1.3117 1.4383 1.5297 1.6730 1.7384 1.7927 1.7698 1.9664 2.5538 3.3775 4.8119 6.2865 6.5131 5.7128 4.3054 3.7179 3.7998 4.0431 4.2208 4.0332 4.1521 3.6165 3.5618 3.6509 3.3647 3.5012 3.3245 3.1804 2.9093 2.7086 2.4657 2.3939 2.4012 2.3712 2.2823 2.1968 2.1070 2.0403 1.9596 1.8480 1.7505 1.5302 1.5238 1.6155 1.6333 1.5123 1.4698 1.4104 1.3327 -99999.0000 -99999.0000 0.5906 0.7304 0.7824 0.8413 0.9375 0.9320 0.9709 1.0065 1.0365 1.0757 1.0867 1.0584 1.0170 1.0019 0.9423 0.9223 0.8120 0.7585 0.7144 0.6918 0.7945 0.9464 1.0816 1.1955 1.3089 1.3767 1.4461 1.9913 7.1223 7.9521 7.4200 6.3884 4.9661 4.2591
0.1038 0.1604 0.2329 0.2960 0.3402 0.3751 0.4170 0.4653 0.5170 0.5485 0.6096 0.6448 0.6534 0.6594 0.6627 0.6541 0.6199 0.6785 0.7432 0.7770 0.7454 0.6905 0.6801 0.6510 0.6348 0.6601 0.6991 0.7144 0.7416 0.7514 0.7775 0.8079 0.8511 0.9040 0.9686 1.0340 1.1091 1.1410 1.2444 1.2852 1.2885 -99999.0000 -99999.0000 1.0163 1.3286 1.5031 1.5892 1.6227 1.7789 1.9648 2.5597 3.6407 4.4994 5.3271 5.6116 5.4453 4.6223 4.1800 3.8188 3.7667 3.7739 4.1290 4.2085 3.9826 3.7673 3.2639 3.4031 3.3848 3.3834 3.3053 3.2712 3.0631 2.8493 2.6599 2.4491 2.1899 2.2929 2.2288 2.1757 2.0652 2.0203 1.9513 1.8870 1.7095 1.7539 1.5048 1.4724 1.5062 1.6119 1.4675 1.4479 1.3945 1.3308 -99999.0000 -99999.0000 0.5479 0.6668 0.7471 0.8176 0.9162 0.9524 0.9668 0.9973 1.0144 1.0279 1.0505 1.0295 0.9724 0.9458 0.9245 0.8430 0.7483 0.6955 0.7107 0.7660 0.9233 1.1433 1.2980 1.4173 1.4997 1.5540 2.8358 8.2904 7.7081 5.1047 3.6078 3.1953 3.5250 3.3917
0.1161 0.1735 0.2476 0.3088 0.3467 0.3881 0.4432 0.5033 0.5476 0.5763 0.6376 0.6747 0.6850 0.6689 0.6722 0.6834 0.7282 0.7361 0.7798 0.8093 0.7799 0.7623 0.7333 0.7276 0.7139 0.7272 0.7963 0.8391 0.8957 0.9128 0.9190 0.9404 1.0113 1.0623 1.1349 1.1918 1.2852 1.3300 1.4266 1.5287 1.4518 -99999.0000 -99999.0000 0.9436 1.2109 1.4110 1.5035 1.6728 2.0795 3.0285 3.8124 4.0513 4.3181 4.5355 4.5791 4.2292 4.0801 3.9271 3.8617 3.7651 3.8132 4.1648 3.9629 3.7143 3.4577 3.1832 3.2087 3.1242 3.3130 3.1775 3.1272 2.9172 2.7411 2.5509 2.4397 2.1211 2.1023 2.1800 2.0414 1.9563 1.9026 1.8577 1.7930 1.6415 1.7053 1.4825 1.4004 1.4366 1.5530 1.4134 1.4183 1.3424 1.3165 1.2525 -99999.0000 0.4696 0.5959 0.7317 0.8294 0.8866 0.9435 0.9615 0.9818 0.9838 0.9910 1.0018 0.9883 0.9271 0.8983 0.8317 0.7386 0.6762 0.6570 0.7679 0.8994 1.0966 1.3247 1.5051 1.6295 1.6912 3.9441 8.7649 6.3478 1.7689 2.0023 2.4662 3.0133 3.4976 3.1257
0.1125 0.1836 0.2653 0.3209 0.3773 0.4174 0.4705 0.5312 0.5891 0.6178 0.6676 0.7172 0.7165 0.7231 0.7387 0.7469 0.8397 0.8137 0.8033 0.7821 0.8219 0.8664 0.8420 0.8747 0.8528 0.8386 0.8988 0.9793 1.0540 1.0835 1.0835 1.0829 1.1520 1.2275 1.3069 1.3778 1.4497 1.5075 1.5463 1.6334 1.6231 1.4263 -99999.0000 0.7252 0.9721 1.2183 1.4786 2.0198 2.6916 3.4268 3.4639 3.6133 4.0204 4.0704 4.4201 4.0258 4.0134 3.7920 3.7651 3.7535 3.7920 3.9238 3.6710 3.6710 3.2800 3.1590 3.0347 2.9813 3.1259 3.0276 3.0017 2.8172 2.5861 2.4234 2.3597 2.0749 2.0153 2.0533 1.9243 1.8969 1.8217 1.7326 1.6951 1.5984 1.6028 1.4732 1.3349 1.3675 1.4347 1.4087 1.3440 1.3435 1.2430 1.2182 -99999.0000 -99999.0000 0.5607 0.7275 0.8010 0.8671 0.9349 0.9433 0.9484 0.9414 0.9524 0.9456 0.9373 0.8638 0.8157 0.7690 0.6778 0.6684 0.6941 0.8750 1.0867 1.2961 1.5419 1.7115 1.8199 5.5128 8.2955 4.6619 1.9257 1.7743 1.9158 2.2907 2.9661 3.5351 3.2012
0.1265 0.2048 0.2897 0.3574 0.4139 0.4558 0.5066 0.5735 0.6224 0.6579 0.7046 0.7438 0.7496 0.7893 0.8160 0.8271 0.9045 0.9071 0.8530 0.8003 0.7809 0.9139 0.9987 1.0427 1.0112 0.9724 1.0281 1.1346 1.2176 1.2710 1.2472 1.2273 1.2870 1.3475 1.4076 1.5146 1.5838 1.6897 1.7189 1.8651 1.9497 3.7825 -99999.0000 -99999.0000 0.5938 0.9087 1.6204 2.1455 2.7804 2.9848 3.5999 3.7977 4.1025 4.0578 4.2627 3.9905 3.8116 3.5822 3.5892 3.6558 3.6321 3.6558 3.5927 3.6373 3.1151 3.0935 2.8809 2.7652 2.9141 2.9042 2.7937 2.7254 2.4472 2.3077 2.2322 2.0439 1.8799 1.9617 1.8565 1.8198 1.7249 1.6501 1.6168 1.5585 1.5099 1.5008 1.2593 1.3105 1.3508 1.3637 1.2886 1.2948 1.2151 1.1857 -99999.0000 -99999.0000 0.5491 0.7037 0.7728 0.8445 0.8991 0.9016 0.9069 0.9135 0.9042 0.8816 0.8634 0.7892 0.7394 0.6901 0.6742 0.7184 0.8591 1.0215 1.2738 1.5121 1.7267 1.9006 4.8839 8.1060 5.4218 1.9031 1.8771 1.7297 1.6786 1.9127 2.6525 3.4467 3.4250
0.1429 0.2316 0.3251 0.3988 0.4627 0.5073 0.5669 0.6419 0.6954 0.7180 0.7383 0.7630 0.7783 0.8214 0.8526 0.8981 0.9820 1.0338 1.0088 0.9399 0.9023 0.9625 1.0846 1.1702 1.1804 1.1169 1.1334 1.2587 1.3659 1.4269 1.3753 1.3474 1.3791 1.4268 1.4975 1.6435 1.8476 2.3508 3.3854 5.9520 6.9086 8.6283 -99999.0000 -99999.0000 0.5071 1.1430 1.8600 2.3702 2.8092 3.1636 3.9081 4.0681 4.0677 3.9837 4.0019 3.7552 3.4713 3.3409 3.5069 3.4475 3.4877 3.5439 3.5184 3.4578 3.1130 2.9705 2.7187 2.5833 2.6739 2.7157 2.6794 2.5678 2.3088 2.2032 2.1220 1.9511 1.8226 1.8882 1.7759 1.7686 1.6260 1.6037 1.5463 1.5060 1.3891 1.4719 1.2290 1.2323 1.2509 1.3012 1.2236 1.2255 1.1818 1.1610 -99999.0000 -99999.0000 0.5142 0.6473 0.7265 0.8166 0.8482 0.8624 0.8725 0.8645 0.8369 0.7997 0.7690 0.7163 0.6548 0.6227 0.6530 0.7843 0.9773 1.2296 1.4895 1.6944 1.8714 3.0891 8.0127 5.5644 2.0052 1.8408 1.7313 1.5339 1.3354 1.3428 2.0638 3.2723 3.7702
0.1674 0.2715 0.3825 0.4596 0.5234 0.5768 0.6403 0.7131 0.7764 0.8042 0.8274 0.8276 0.8129 0.8578 0.9052 0.9665 1.0675 1.1799 1.2027 1.1490 1.0789 1.0865 1.1453 1.2106 1.3074 1.2951 1.2412 1.3716 1.4604 1.5379 1.5359 1.5594 1.6004 1.7047 1.8097 2.2461 3.6353 5.5944 8.3825 8.6334 8.5832 7.2460 -99999.0000 -99999.0000 0.6299 1.2603 2.1113 2.6949 2.9737 3.4649 4.2614 3.9094 3.8852 3.7423 3.6914 3.5074 3.2796 3.2206 3.3266 3.3755 3.3257 3.3123 3.3920 3.3345 2.9978 2.7770 2.6325 2.3998 2.4374 2.5930 2.4801 2.4139 2.1986 2.0567 1.9725 1.9224 1.7619 1.7738 1.7537 1.6600 1.5631 1.5104 1.5059 1.4045 1.3473 1.3546 1.2044 1.1400 1.1630 1.2047 1.1674 1.1947 1.1733 1.1365 1.1205 -99999.0000 0.4353 0.5605 0.6862 0.7621 0.8049 0.8284 0.8156 0.7824 0.7253 0.7038 0.6812 0.6301 0.5609 0.5626 0.6516 0.8548 1.1160 1.3918 1.6682 1.8690 1.9785 7.2668 6.4298 2.1391 1.9230 1.6986 1.4562 1.2540 1.0331 0.9289 1.2238 3.0344 4.0982
0.1699 0.3053 0.4375 0.5175 0.5822 0.6446 0.7118 0.7885 0.8580 0.8969 0.9403 0.9414 0.9318 0.9505 0.9960 1.0563 1.2088 1.3650 1.4935 1.4299 1.3327 1.2494 1.2152 1.1915 1.2852 1.4501 1.4875 1.6115 1.8457 1.9643 2.0440 2.0865 2.1837 2.3315 3.1684 5.5428 7.2364 8.3412 7.2200 4.6122 3.5161 3.0426 2.6963 -99999.0000 0.6915 1.3327 2.3751 2.9505 3.1516 3.6946 4.2034 3.8181 3.5508 3.4763 3.5236 3.4642 3.2126 3.0892 3.1991 3.2564 3.1489 3.0974 3.1791 3.1522 2.8987 2.5995 2.5085 2.2703 2.2423 2.3846 2.3336 2.2673 2.0998 1.9294 1.8333 1.8339 1.7210 1.6695 1.7154 1.5876 1.4795 1.4228 1.3831 1.3314 1.2828 1.2411 1.1798 1.0550 1.0646 1.1331 1.1548 1.1582 1.1476 1.0570 1.0521 -99999.0000 -99999.0000 0.5069 0.6453 0.7077 0.7496 0.7602 0.7017 0.6566 0.6234 0.6231 0.6159 0.5532 0.4863 0.5484 0.7063 0.9574 1.2650 1.5542 1.8064 2.0038 5.4150 7.9352 2.4969 1.9917 1.7458 1.4704 1.1920 1.0175 0.8031 0.8148 0.8129 1.9369 4.5780
0.2051 0.3308 0.4445 0.5285 0.5873 0.6541 0.7189 0.8045 0.8820 0.9712 1.0428 1.0974 1.1358 1.2009 1.2490 1.3220 1.5191 1.6952 1.8950 1.9781 2.0188 1.7434 1.4556 1.3280 1.3228 1.6137 1.8780 2.0179 2.0965 2.2666 2.3943 2.4830 2.7714 4.4787 6.8067 7.8394 7.5199 5.2722 3.2211 2.6967 2.9642 2.9490 2.7113 -99999.0000 -99999.0000 1.5579 2.5527 3.1573 3.2993 3.7209 3.9679 3.7544 3.4341 3.3825 3.4180 3.3533 3.1136 3.0200 3.0089 3.0773 2.9996 2.8918 2.9418 2.9454 2.7631 2.4686 2.4062 2.0733 2.1112 2.2099 2.1698 2.0984 2.0014 1.8321 1.7392 1.7488 1.6312 1.5916 1.6451 1.4866 1.3977 1.3261 1.2790 1.2136 1.2147 1.1285 1.1442 0.9777 1.0216 1.0879 1.1662 1.1235 1.0698 1.0111 0.9760 -99999.0000 -99999.0000 0.4569 0.5769 0.6307 0.6698 0.6622 0.6038 0.5713 0.5321 0.5057 0.5083 0.4883 0.4714 0.5601 0.7750 1.0685 1.3927 1.7162 1.9065 3.5727 8.0451 3.1009 2.1325 1.8239 1.5082 1.2225 0.9701 0.8395 0.7618 0.7783 0.8387 1.0771 4.7152
0.1959 0.3275 0.4483 0.5252 0.5947 0.6533 0.7406 0.8247 0.9296 0.9922 1.1017 1.1938 1.3013 1.4200 1.5548 1.7312 1.8690 2.0516 2.1528 2.3182 2.4351 2.4877 2.1896 2.0147 1.9195 2.0765 2.2419 2.3030 2.3399 2.3913 2.4663 3.2692 5.2097 7.5486 7.5836 5.7987 3.4232 2.4324 2.6771 2.7676 2.9458 2.8595 2.7531 -99999.0000 -99999.0000 1.7861 2.6384 3.1963 3.3931 3.6016 3.7220 3.6881 3.3839 3.2245 3.2168 3.2489 3.0166 2.8227 2.8904 2.9046 2.8527 2.7039 2.7169 2.7159 2.6117 2.3634 2.2417 2.0216 1.9503 2.0369 2.0878 1.9636 1.8975 1.7370 1.6657 1.6130 1.5918 1.5002 1.4975 1.4048 1.2977 1.1795 1.2056 1.1136 1.0998 1.0567 1.0821 0.9662 1.0167 1.0809 1.1270 1.0562 0.9910 0.9261 0.8521 0.7610 -99999.0000 0.3627 0.4578 0.5338 0.5700 0.5752 0.5310 0.5042 0.4660 0.4291 0.4699 0.4999 0.5156 0.6417 0.8887 1.1559 1.4591 1.7649 2.1406 7.5548 4.3677 2.0582 1.9140 1.5754 1.2751 1.0262 0.8390 0.7731 0.8396 0.8227 1.0160 1.5034 4.6702
0.1999 0.3290 0.4530 0.5403 0.6186 0.6715 0.7380 0.8528 0.9360 1.0295 1.1159 1.2194 1.3665 1.5495 1.6314 1.6926 1.7114 1.7324 1.8209 1.9239 2.1782 2.5384 2.7036 2.6744 2.5907 2.3591 2.3473 2.4242 2.5955 2.7460 4.4801 6.2953 7.6592 6.6115 3.9022 2.7404 2.4399 2.3976 2.7391 2.8025 2.7553 2.7407 2.8864 -99999.0000 -99999.0000 1.8720 2.6045 3.0957 3.3726 3.5327 3.5278 3.5902 3.2634 3.0970 3.0343 3.0536 2.9021 2.7080 2.6660 2.7437 2.7102 2.5612 2.4689 2.5851 2.3612 2.2750 2.0963 1.9089 1.8708 1.8898 2.0014 1.8619 1.7854 1.6329 1.5948 1.4994 1.4928 1.3990 1.3741 1.2911 1.1767 1.0947 1.0871 1.0501 1.0091 0.9889 1.0105 0.9864 0.9819 1.0394 1.0146 0.9487 0.8964 0.8450 0.7383 0.6726 -99999.0000 -99999.0000 0.3689 0.4633 0.4981 0.5590 0.5941 0.5335 0.5254 0.5350 0.5679 0.6257 0.6552 0.7486 0.9929 1.2860 1.5728 2.1989 6.9578 6.0988 2.3373 1.8475 1.6517 1.3635 1.0923 0.9061 0.8040 0.7946 0.9422 1.0209 1.4697 2.2282 4.4796
0.1849 0.3189 0.4506 0.5297 0.5991 0.6661 0.7401 0.8509 0.9510 1.0324 1.1035 1.2168 1.3367 1.3949 1.4214 1.4028 1.4454 1.4662 1.5039 1.6044 1.7427 1.9594 2.3708 2.2971 2.3879 2.5088 2.6104 2.7670 2.9307 4.9321 6.9123 7.1086 5.4995 2.6469 2.5827 2.4504 2.4120 2.4489 2.6861 2.7069 2.5583 2.8816 2.6385 2.1799 -99999.0000 1.7945 2.4648 2.9798 3.3173 3.3279 3.3086 3.4669 3.1569 2.8769 2.8950 2.8526 2.7520 2.5621 2.5332 2.5133 2.5623 2.4028 2.3034 2.3464 2.2416 2.1081 1.9672 1.8701 1.7703 1.7958 1.8896 1.7836 1.6396 1.5564 1.4816 1.3786 1.3655 1.2897 1.2273 1.2161 1.0763 0.9822 0.9873 0.9881 0.9437 0.9670 0.9595 0.9470 0.8970 0.9416 0.9344 0.8906 0.8702 0.8023 0.6665 0.5914 -99999.0000 -99999.0000 0.3959 0.5366 0.6306 0.7335 0.7529 0.7446 0.7303 0.7460 0.7674 0.7915 0.8243 0.9020 1.0885 1.4777 2.6781 6.6884 5.7001 2.5399 2.0681 1.6317 1.4167 1.2220 1.0024 0.8579 0.8633 0.9312 1.1576 1.4674 1.8748 1.9274 4.3981
0.1596 0.2919 0.4308 0.5118 0.5920 0.6633 0.7671 0.8803 0.9650 1.0650 1.2076 1.2816 1.2624 1.2927 1.2878 1.2734 1.2924 1.3087 1.3696 1.4586 1.5290 1.6196 1.7656 2.0246 2.1688 2.4129 2.7853 3.0436 5.0606 6.6498 6.4512 4.1778 2.4638 2.5053 2.5407 2.4457 2.4173 2.4238 2.5470 2.5836 2.5216 2.6874 2.5733 2.2107 -99999.0000 -99999.0000 2.4397 2.8779 3.0426 3.1467 3.1965 3.1710 2.9992 2.7393 2.6854 2.6079 2.6148 2.3855 2.3305 2.3636 2.4010 2.2894 2.1516 2.1745 2.0397 1.9941 1.8676 1.8017 1.7046 1.6679 1.7564 1.6977 1.5083 1.4823 1.3409 1.2615 1.2546 1.1754 1.1459 1.1141 0.9701 0.9319 0.9266 0.9253 0.9027 0.9466 0.9071 0.8615 0.7838 0.8361 0.9017 0.9169 0.8260 0.7851 0.7088 0.6354 -99999.0000 -99999.0000 0.5921 0.7527 0.8817 0.9584 0.9891 1.0295 1.0013 0.9957 0.9636 0.9624 0.9844 1.0085 1.6924 3.6420 6.2496 5.4359 2.7773 2.1795 1.8698 1.5163 1.2674 1.1346 0.9528 0.9273 0.9627 1.2018 1.5051 1.8009 1.8079 2.3046 4.1846
0.1045 0.2615 0.4376 0.5162 0.5952 0.6872 0.7912 0.9140 1.0205 1.1317 1.1975 1.1831 1.1820 1.2059 1.1735 1.1004 1.0710 1.0987 1.1325 1.2288 1.3218 1.4070 1.4788 1.6463 2.0220 2.7569 3.4437 4.7575 6.3213 6.1348 3.7921 2.4932 2.4423 2.4679 2.5161 2.4515 2.4212 2.4229 2.4552 2.5105 2.4372 2.5041 2.5228 2.2066 -99999.0000 -99999.0000 2.3555 2.6854 2.8855 2.9275 2.9241 2.9415 2.7784 2.5150 2.4658 2.3938 2.3816 2.2165 2.2051 2.1938 2.1768 2.3118 2.0181 1.9587 1.9274 1.8986 1.7495 1.6897 1.6819 1.5540 1.6246 1.5871 1.3899 1.3616 1.2402 1.1529 1.1302 1.1260 1.0384 1.0353 0.9118 0.9019 0.8801 0.8836 0.8902 0.8665 0.7884 0.7514 0.6739 0.7536 0.9068 0.9170 0.8665 0.8283 0.8455 0.8158 0.8050 -99999.0000 -99999.0000 0.9488 1.1333 1.2063 1.2403 1.2713 1.2112 1.1609 1.1029 1.2054 1.8409 2.9358 4.4472 5.7793 4.9440 3.0092 2.4610 1.9230 1.7590 1.4594 1.1695 1.0226 0.9936 1.0516 1.2181 1.4751 1.6917 1.8470 1.8870 2.5103 3.9569
0.1047 0.2614 0.4420 0.5167 0.5931 0.6995 0.8158 0.9173 0.9941 1.0692 1.0832 1.0207 0.9790 0.9946 0.9339 0.8818 0.9093 0.9478 1.0065 1.0920 1.2037 1.2868 1.3924 1.6150 2.6694 3.6933 4.3568 6.0668 5.8897 3.5630 2.5730 2.4900 2.4206 2.4397 2.4972 2.4007 2.3970 2.3629 2.3687 2.4008 2.3866 2.3863 2.3592 2.3248 -99999.0000 -99999.0000 2.2418 2.4985 2.6225 2.6795 2.7163 2.5759 2.5362 2.3113 2.2127 2.1440 2.1567 2.0824 2.0536 2.0636 2.0448 2.0945 1.9611 1.8066 1.7918 1.7832 1.6523 1.5752 1.5991 1.4901 1.4456 1.4541 1.2812 1.2531 1.1453 1.0822 1.0359 1.0372 1.0039 0.9308 0.9105 0.8615 0.8444 0.8229 0.7876 0.7464 0.7205 0.7043 0.6675 0.8084 0.8920 0.9759 1.0208 1.0581 1.0631 1.0910 1.0947 -99999.0000 -99999.0000 1.0375 1.3107 1.4210 1.4348 1.5250 1.5984 1.8150 2.5281 3.4021 4.5833 5.0550 5.1972 4.0784 3.2390 2.7122 2.2682 1.8158 1.6348 1.3877 1.1134 0.9931 1.0901 1.2491 1.4382 1.6658 1.8236 1.9252 1.9548 2.7837 3.6640
0.1314 0.2811 0.4469 0.5284 0.6073 0.7121 0.8088 0.9048 0.9679 0.9340 0.9250 0.7622 0.7245 0.7677 0.7919 0.8109 0.8624 0.9518 1.0138 1.1450 1.2114 1.2919 1.4837 2.0616 3.7595 4.8040 5.4530 6.0064 3.6642 2.4329 2.5100 2.4186 2.4268 2.3848 2.4404 2.3358 2.3625 2.3087 2.2894 2.2862 2.3025 2.2179 2.3497 2.1919 1.7944 -99999.0000 2.0104 2.2618 2.3575 2.4074 2.4118 2.3194 2.2499 2.0875 1.9770 1.9299 1.9926 1.9485 1.9153 1.9445 1.8422 1.9461 1.8123 1.6935 1.6677 1.6555 1.5473 1.4603 1.4969 1.3882 1.3316 1.3238 1.1622 1.1482 1.0878 1.0347 0.9501 0.9690 0.9343 0.8940 0.8767 0.8339 0.7660 0.7064 0.6794 0.6404 0.6562 0.7086 0.6749 0.8148 1.0207 1.1290 1.2552 1.3089 1.3432 1.3910 1.3815 -99999.0000 -99999.0000 0.9388 1.2637 1.4808 1.6405 1.9418 2.7170 3.5576 4.2558 4.6395 4.3561 4.1153 3.1505 2.7910 2.8290 2.6639 2.0764 1.7644 1.4902 1.2975 1.0741 1.0503 1.2155 1.4736 1.6553 1.8125 1.8722 1.9809 1.9660 2.5738 3.4338
0.1611 0.3080 0.4593 0.5328 0.6038 0.6906 0.7963 0.8712 0.8944 0.8487 0.7630 0.5977 0.6120 0.6901 0.7508 0.8270 0.9199 1.0221 1.1064 1.1970 1.2855 1.3991 1.9065 3.1158 5.1697 4.7741 5.6581 3.5240 2.5504 2.4860 2.4885 2.4071 2.3968 2.2848 2.3410 2.2662 2.2593 2.2328 2.1970 2.1803 2.2163 2.0846 2.2457 2.0454 1.7106 -99999.0000 1.6625 1.9875 2.0721 2.1052 2.1581 2.0408 1.9910 1.8994 1.7605 1.7841 1.8175 1.8116 1.7141 1.8184 1.7132 1.7602 1.6887 1.5867 1.5083 1.5140 1.4660 1.3512 1.3665 1.3040 1.2012 1.2041 1.0650 1.0433 1.0713 0.9405 0.9051 0.9182 0.9048 0.8498 0.8236 0.7248 0.6313 0.5946 0.5838 0.5701 0.6531 0.7100 0.7223 0.8812 1.2705 1.2860 1.4713 1.5732 1.6209 1.7620 1.9097 3.2022 -99999.0000 0.6122 1.0143 1.4327 1.8796 2.5596 3.3179 3.8689 3.7486 3.1034 2.8473 3.0417 2.8717 2.5391 2.5454 2.5811 2.0497 1.6444 1.3527 1.2310 1.1149 1.1599 1.4124 1.6677 1.7591 1.8472 1.8595 1.8796 1.3615 1.5578 3.7665
0.1716 0.3276 0.4761 0.5368 0.5916 0.6902 0.7760 0.8397 0.8352 0.7503 0.6161 0.5420 0.6592 0.7641 0.8377 0.9175 1.0006 1.1023 1.1833 1.3086 1.4065 1.7888 2.5295 4.2665 5.0859 5.5093 3.9057 2.1140 2.4094 2.4280 2.5013 2.4364 2.3345 2.1758 2.2007 2.1342 2.1538 2.1456 2.0965 2.1034 2.0464 2.0145 2.0611 1.8965 1.6282 -99999.0000 -99999.0000 1.7740 1.8129 1.8272 1.8735 1.8560 1.7405 1.6934 1.5922 1.6274 1.6187 1.6139 1.6154 1.6398 1.5660 1.5914 1.5603 1.4825 1.3511 1.3988 1.3494 1.2491 1.2394 1.2090 1.1166 1.0847 0.9863 0.9858 1.0067 0.8902 0.8672 0.8773 0.8436 0.7626 0.7022 0.6083 0.5308 0.5115 0.5716 0.6369 0.7126 0.8101 0.7691 0.9947 1.5918 1.6553 1.7592 1.8332 2.3745 3.5893 5.0298 5.6063 -99999.0000 -99999.0000 0.9553 1.5292 2.1188 2.7734 3.4364 3.3349 3.1225 2.7061 2.7243 2.7664 2.8013 2.5148 2.4769 2.3247 1.9526 1.5454 1.2379 1.1648 1.1974 1.3102 1.5896 1.7601 1.7822 1.7513 1.7367 1.2877 1.7333 1.8200 3.6065
0.2216 0.3665 0.4948 0.5674 0.6400 0.7275 0.7966 0.8295 0.8249 0.7286 0.7425 0.7207 0.7975 0.9126 0.9546 1.0230 1.0721 1.1839 1.2783 1.4215 1.7827 2.4828 3.2670 5.0238 5.7360 4.7823 2.2115 2.1499 2.2923 2.3704 2.4602 2.4029 2.2958 2.1115 2.0278 1.9800 2.0078 2.0156 1.9920 1.9470 1.9209 1.9040 1.8833 1.7607 1.5309 -99999.0000 -99999.0000 1.5208 1.5789 1.5847 1.6271 1.6574 1.5448 1.5046 1.4240 1.4440 1.4392 1.4374 1.4458 1.4753 1.4309 1.3884 1.4023 1.3883 1.2067 1.2511 1.2695 1.1376 1.1413 1.1120 1.0706 0.9520 0.9422 0.9323 0.9507 0.8436 0.8542 0.8058 0.7308 0.6694 0.6155 0.5215 0.5084 0.5906 0.7042 0.8274 0.9155 0.9871 0.9004 0.9870 1.8691 2.1660 1.9727 3.3798 4.6410 5.0915 4.7589 3.8920 -99999.0000 -99999.0000 1.2764 1.7582 2.3368 3.0749 3.4963 3.1318 2.8495 2.6497 2.5982 2.6013 2.5570 2.5485 2.2636 2.1415 1.8471 1.4933 1.1914 1.1807 1.3097 1.5286 1.6657 1.7569 1.7192 1.5996 1.3510 1.8416 1.9584 2.3461 3.2687
0.2754 0.4193 0.5379 0.6099 0.6691 0.7556 0.8046 0.8341 0.8392 0.9120 0.9576 1.0186 1.0355 1.1241 1.1042 1.1807 1.2326 1.3693 1.5006 1.8647 2.4329 3.2454 4.3096 5.8162 5.1969 2.5267 2.2058 2.1442 2.1782 2.2573 2.4033 2.3886 2.2593 2.0228 1.9108 1.8484 1.8646 1.8688 1.8251 1.8251 1.7886 1.7365 1.7290 1.6431 1.4928 -99999.0000 -99999.0000 1.3023 1.3635 1.3934 1.3968 1.4970 1.3597 1.3298 1.2933 1.2551 1.2586 1.2857 1.2845 1.2973 1.2813 1.2110 1.2378 1.2713 1.0931 1.1446 1.1683 1.0372 1.0683 1.0262 0.9551 0.8943 0.8794 0.8747 0.9006 0.8126 0.7608 0.6955 0.6488 0.6104 0.5731 0.6069 0.6605 0.7729 0.9405 1.1089 1.1683 1.1537 1.1256 0.7215 2.2432 2.6669 4.5460 4.3513 4.0574 3.1767 2.7454 2.5735 -99999.0000 -99999.0000 1.3665 1.8102 2.6211 3.2438 3.2913 3.0812 2.8382 2.5608 2.4382 2.4531 2.3930 2.3438 2.1369 1.9180 1.6891 1.4176 1.2619 1.2863 1.4941 1.5613 1.6385 1.7490 1.4227 1.5273 1.7783 2.0924 2.3131 2.5485 2.7036
0.3337 0.4812 0.5865 0.6425 0.6974 0.7455 0.7802 0.8152 0.8450 1.0009 1.1625 1.2800 1.2997 1.3662 1.3480 1.4110 1.5086 1.5648 1.9886 2.6164 2.9990 4.7297 5.7268 5.2942 2.6419 2.4598 2.2777 2.1036 2.0402 2.1075 2.2520 2.3334 2.1769 1.9434 1.7907 1.7017 1.7257 1.7389 1.6756 1.6598 1.6658 1.6008 1.5123 1.5683 1.3737 1.1204 -99999.0000 1.0529 1.1928 1.2063 1.2342 1.2767 1.2065 1.1934 1.1404 1.0706 1.1258 1.1220 1.1325 1.1328 1.1263 1.0772 1.1053 1.1498 1.0208 1.0478 1.0549 0.9839 0.9908 0.9357 0.8656 0.8285 0.8121 0.8249 0.8028 0.7342 0.6398 0.6115 0.6197 0.5945 0.6951 0.8077 0.9273 1.0562 1.2329 1.4029 1.3846 1.4685 1.8661 0.3239 2.6363 4.1003 2.6159 2.7432 2.6208 2.5085 2.4938 2.4545 2.1511 -99999.0000 -99999.0000 1.9616 2.8182 3.2028 2.9870 3.0419 2.7831 2.5018 2.2643 2.2491 2.1828 2.0757 1.9485 1.6841 1.4898 1.3504 1.3583 1.3883 1.4813 1.5636 1.7351 1.3541 1.6505 1.5996 2.2265 2.3724 2.4005 2.3192 1.8994
0.3846 0.5312 0.6163 0.6607 0.6909 0.7058 0.7189 0.7476 0.8618 1.0292 1.2168 1.3379 1.4481 1.5203 1.5437 1.5761 1.5184 2.2254 2.9425 3.5237 4.8221 5.7710 4.4784 2.5540 2.4608 2.3707 2.2530 2.0326 1.9225 1.9157 2.0673 2.1544 2.1009 1.8604 1.6910 1.5581 1.5900 1.6059 1.5196 1.5171 1.5113 1.4824 1.3731 1.3988 1.2528 1.0397 -99999.0000 -99999.0000 1.0711 1.0495 1.0641 1.1097 1.0598 1.0379 0.9974 0.9364 0.9849 0.9590 0.9926 0.9769 0.9907 0.9856 0.9776 1.0385 0.9520 0.9489 0.9503 0.9176 0.9103 0.8645 0.7965 0.7662 0.7493 0.7279 0.6995 0.6485 0.5530 0.5152 0.6285 0.7512 0.8845 1.0526 1.2192 1.3689 1.5113 1.6742 1.8369 3.2129 3.7739 0.4339 1.8254 3.3973 2.5632 2.5017 2.4701 2.3473 2.3350 2.2339 2.0494 -99999.0000 -99999.0000 2.0961 2.7988 2.9675 2.7931 2.8506 2.6620 2.3515 2.0838 2.0127 1.9349 1.8008 1.7265 1.4805 1.3241 1.3694 1.4299 1.3916 1.5328 1.6116 1.4485 1.7833 1.7395 2.2630 2.4298 2.2794 1.7098 1.6512 1.7922
0.4489 0.6000 0.6734 0.7135 0.7183 0.7075 0.6853 0.7477 0.9186 1.1226 1.2522 1.3574 1.4680 1.5751 1.5744 1.7011 2.9217 3.8741 4.9122 5.3920 5.2703 3.9163 2.3829 2.3395 2.3211 2.2631 2.1557 1.9522 1.8103 1.7095 1.8501 1.9896 1.9457 1.7493 1.5965 1.4377 1.4280 1.4631 1.3961 1.3597 1.3544 1.3322 1.2497 1.2231 1.1358 0.9527 -99999.0000 -99999.0000 0.9114 0.8939 0.9205 0.9268 0.9438 0.9005 0.8715 0.8024 0.8432 0.8249 0.8384 0.8729 0.8654 0.8896 0.8562 0.9163 0.9041 0.8404 0.8801 0.8585 0.8382 0.7820 0.7522 0.7099 0.6207 0.6244 0.6027 0.5841 0.4996 0.5762 0.7195 0.9088 1.1219 1.3342 1.5081 1.6504 1.7522 2.6515 4.2632 4.9856 6.8047 1.2649 0.8835 2.7192 2.4562 2.4209 2.2633 2.1554 2.0831 2.0077 1.9297 -99999.0000 -99999.0000 1.9818 2.5266 2.6412 2.5498 2.5667 2.4538 2.1511 1.9011 1.7563 1.6659 1.5711 1.4799 1.3455 1.2536 1.3107 1.3833 1.5307 1.3231 1.5861 1.8169 1.8428 2.3160 2.4483 2.0276 1.3315 1.1917 1.4452 1.8294
0.5477 0.7158 0.7693 0.7746 0.7682 0.7682 0.7619 0.8499 1.0157 1.1914 1.3369 1.4607 1.5406 1.6267 2.0716 4.0222 5.1269 5.2052 4.7045 3.6844 2.9863 2.3538 2.2468 2.1641 2.1497 2.0422 2.0151 1.8030 1.7072 1.5403 1.6316 1.7536 1.8007 1.6139 1.4596 1.3203 1.2873 1.2785 1.2547 1.1993 1.1676 1.1890 1.1066 1.0811 0.9661 0.8964 -99999.0000 -99999.0000 0.7230 0.7527 0.7621 0.7744 0.8256 0.7764 0.7535 0.7081 0.6996 0.7049 0.7237 0.7699 0.7440 0.7727 0.7639 0.8284 0.8166 0.8020 0.8282 0.7920 0.7552 0.7117 0.6664 0.5857 0.5420 0.5366 0.5504 0.5659 0.5870 0.6446 0.8378 1.1023 1.3747 1.6145 1.7736 1.8930 3.4524 4.9125 4.9748 4.4148 3.9208 2.4309 0.6538 2.0530 2.5710 2.2468 2.0103 1.9237 1.8229 1.7368 1.6971 1.6024 -99999.0000 1.5533 2.0233 2.2965 2.2853 2.2601 2.1776 1.9098 1.6763 1.5148 1.4667 1.3886 1.2925 1.2313 1.1288 1.2529 1.4205 1.3501 1.6718 1.5701 2.0197 2.4533 2.3637 1.7269 1.2385 1.1395 1.1437 1.1762 1.8606
0.6917 0.8660 0.8730 0.8501 0.8416 0.8354 0.8544 0.9843 1.1395 1.2726 1.3977 1.5371 1.8635 2.3965 3.9096 4.9474 3.9330 2.9840 2.3356 2.2308 2.3047 2.1362 2.1101 1.9860 1.9181 1.8194 1.8236 1.6475 1.5578 1.4017 1.4302 1.5498 1.5979 1.4677 1.3448 1.2040 1.1261 1.1176 1.0812 1.0315 1.0084 1.0217 0.9678 0.8807 0.8833 0.7837 0.6342 -99999.0000 0.5432 0.5995 0.6282 0.6526 0.6988 0.6596 0.6600 0.6088 0.5728 0.6125 0.6252 0.6575 0.6497 0.6888 0.7023 0.7557 0.7780 0.7642 0.7679 0.7244 0.6758 0.6486 0.5954 0.5083 0.4563 0.5425 0.6074 0.6668 0.7348 0.8179 1.0247 1.2820 1.5621 1.8106 1.9185 4.4309 5.1740 4.1262 3.3724 2.2397 2.3887 2.5507 1.7422 0.8081 2.1797 1.9416 1.7613 1.6717 1.5602 1.5281 1.5248 1.5389 -99999.0000 -99999.0000 1.5689 1.9245 1.9792 1.9392 1.8867 1.6631 1.4546 1.3053 1.2876 1.1895 1.1237 1.1227 1.1110 1.1481 1.4004 1.5688 1.6652 2.1454 2.4839 2.1522 1.4807 1.2532 1.1305 1.1125 1.1997 1.4808 1.6165
0.9219 1.0482 0.9709 0.9297 0.9122 0.9329 1.0041 1.1508 1.2822 1.4130 1.5641 1.8967 2.0944 3.2257 4.5317 3.8293 2.4989 2.0064 2.2118 2.1199 2.0422 1.9435 1.9545 1.7866 1.6899 1.6061 1.5928 1.4887 1.4040 1.2775 1.2407 1.3556 1.3999 1.3228 1.1928 1.0830 0.9896 0.9541 0.9310 0.8788 0.8436 0.8548 0.8131 0.7240 0.7329 0.6532 0.5244 -99999.0000 -99999.0000 0.5061 0.5168 0.5370 0.5819 0.5611 0.5560 0.5221 0.4875 0.5191 0.5243 0.5581 0.5660 0.6438 0.6721 0.7109 0.7201 0.7264 0.6739 0.6545 0.5994 0.5965 0.5273 0.5148 0.5247 0.6159 0.7355 0.8169 0.8981 1.0262 1.2116 1.4456 1.5875 2.2982 4.6589 4.6902 2.2405 2.1977 2.4443 2.1993 2.1290 2.2081 1.9924 1.1991 1.8560 1.6208 1.5421 1.4187 1.3675 1.3832 1.4118 1.5580 -99999.0000 -99999.0000 1.2410 1.5443 1.6949 1.6378 1.5900 1.4240 1.2787 1.1391 1.0507 1.0495 1.0441 0.8348 1.0530 1.3081 1.1905 1.8123 2.1284 2.4508 1.9125 1.4052 1.2167 1.1949 1.1777 1.2602 1.3492 1.2548 1.3008
1.0139 1.1659 1.0652 0.9923 0.9858 1.0363 1.1115 1.2615 1.4145 1.5416 1.8024 1.9189 1.9714 3.6740 4.6175 2.7480 1.7338 1.9392 2.1815 2.0139 1.8267 1.7448 1.7550 1.5912 1.4860 1.3700 1.3824 1.3458 1.2418 1.1581 1.0864 1.1608 1.2188 1.1592 1.0441 0.9577 0.8533 0.8098 0.7763 0.7241 0.6821 0.6759 0.6436 0.5845 0.5674 0.5260 0.4346 -99999.0000 -99999.0000 0.4157 0.4248 0.4427 0.4579 0.4739 0.4601 0.4378 0.4189 0.4301 0.4538 0.4781 0.5317 0.5880 0.6143 0.6416 0.6446 0.6606 0.6108 0.5785 0.5894 0.5431 0.5752 0.6137 0.6894 0.7794 0.9152 1.0305 1.1295 1.2619 1.4156 1.8097 3.0438 4.6111 4.0535 2.2208 2.1164 2.0488 2.1438 2.0846 1.9354 1.9355 1.8350 1.5278 1.4098 1.4412 1.3129 1.2768 1.2331 1.2976 1.3995 1.5485 1.6198 -99999.0000 0.9701 1.2283 1.4385 1.3733 1.3428 1.1947 1.1150 1.0527 0.9187 0.9182 1.0003 0.8305 0.5697 1.2327 1.6332 2.1891 2.2871 1.7754 1.3381 1.2801 1.1674 1.2041 1.2229 1.1603 1.0840 1.0334 1.1037
1.1277 1.3108 1.2458 1.2106 1.1718 1.2202 1.2919 1.3774 1.4726 1.6339 1.7757 1.6248 2.1773 4.3974 3.9682 1.8584 1.6781 1.9172 2.0543 1.9342 1.6666 1.5163 1.5095 1.4051 1.2866 1.1911 1.1750 1.1733 1.0701 1.0176 0.9446 0.9926 1.0235 0.9997 0.9059 0.8259 0.7232 0.6632 0.6180 0.5693 0.5304 0.5127 0.4949 0.4436 0.4318 0.4044 0.3698 -99999.0000 -99999.0000 0.3124 0.3359 0.3454 0.3544 0.3860 0.3832 0.3811 0.3629 0.3774 0.3990 0.4545 0.4772 0.5027 0.5275 0.5567 0.6011 0.6122 0.5550 0.5709 0.5694 0.5959 0.6686 0.7809 0.8839 0.9773 1.0976 1.2627 1.3769 1.6047 2.5923 3.9713 4.1872 3.0973 2.2689 2.1449 2.0094 1.9231 1.8985 1.8724 1.7427 1.6515 1.5888 1.4628 1.1918 1.2018 1.1830 1.1632 1.1924 1.2550 1.4020 1.5226 1.5782 -99999.0000 -99999.0000 1.0500 1.2105 1.1510 1.1481 1.0731 0.9278 0.8998 0.9661 0.8712 0.5925 0.7280 0.6111 1.5136 2.1220 2.0545 1.9190 1.3573 1.2374 1.1555 1.0919 1.1021 1.0567 0.9631 0.9285 0.9381 0.9894
1.2842 1.4601 1.3540 1.3523 1.4509 1.5222 1.5536 1.5296 1.5495 1.6607 1.4616 1.9274 3.2686 4.6502 2.6542 1.6636 1.6955 1.7933 1.9066 1.8251 1.5783 1.3750 1.3138 1.2465 1.1211 1.0402 0.9860 0.9511 0.9437 0.8777 0.8087 0.8190 0.8466 0.8391 0.7557 0.6847 0.6013 0.5201 0.4753 0.4332 0.3904 0.3793 0.3657 0.3368 0.3181 0.3372 0.2888 0.2513 -99999.0000 0.2003 0.2486 0.2656 0.2745 0.3239 0.3440 0.3435 0.3365 0.3488 0.3892 0.3936 0.3943 0.4302 0.4751 0.5061 0.5743 0.5928 0.5507 0.5696 0.6421 0.7184 0.8129 0.9298 1.0522 1.1609 1.2694 1.4845 2.1526 3.3603 3.8634 3.3348 2.2369 2.0521 2.0749 1.9612 1.8730 1.7194 1.6679 1.6536 1.5041 1.3993 1.3282 1.2869 1.1320 1.0095 1.0739 1.1200 1.1674 1.2475 1.3855 1.4636 1.4554 -99999.0000 -99999.0000 0.8773 1.0083 1.0481 0.8782 0.9415 0.8795 0.8030 0.6919 0.8068 0.6590 0.5574 0.5756 1.9823 2.3445 1.8828 1.1885 1.1484 1.0172 1.0321 0.9445 0.8975 0.9550 0.9368 0.9471 0.7810 0.7067
1.1955 1.3325 1.2546 1.3014 1.4003 1.5286 1.6213 1.5584 1.5996 1.4451 1.5945 3.1050 4.3970 3.5732 1.8770 1.7088 1.6266 1.6412 1.6948 1.6458 1.4397 1.2187 1.1308 1.0934 0.9895 0.9093 0.8388 0.7940 0.7917 0.7304 0.6800 0.6592 0.6770 0.6701 0.6112 0.5419 0.4784 0.4019 0.3551 0.3179 0.2833 0.2736 0.2630 0.2494 0.2292 0.2500 0.2126 0.1908 -99999.0000 -99999.0000 0.1784 0.2166 0.2613 0.3231 0.3219 0.3259 0.3329 0.3180 0.3260 0.3452 0.3563 0.3906 0.4399 0.4875 0.5335 0.5718 0.5565 0.6221 0.7247 0.8365 0.9649 1.0876 1.2197 1.3597 1.7783 2.8711 3.4146 3.2981 2.2257 1.9160 1.8496 1.8217 1.8875 1.7833 1.6587 1.5261 1.4462 1.3913 1.2965 1.1812 1.1024 1.1496 1.0744 0.8906 1.0129 1.0880 1.1568 1.2159 1.3197 1.3331 1.3483 -99999.0000 -99999.0000 0.7717 0.7964 0.8911 0.7977 0.5055 0.7708 0.8033 0.6940 0.6227 0.5854 0.7729 2.0069 2.7755 1.9862 0.9412 0.8991 0.9500 0.9461 0.9121 0.9001 0.9533 0.9870 0.8632 0.7084 0.5231 0.4551
0.9328 1.1319 1.1371 1.1585 1.2227 1.3029 1.3809 1.4361 1.3645 1.3566 3.1519 4.2023 3.5873 2.0168 1.8712 1.7202 1.5417 1.4916 1.4701 1.4761 1.3203 1.1052 1.0142 0.9701 0.8687 0.7790 0.7080 0.6683 0.6572 0.6164 0.5730 0.5238 0.5208 0.5117 0.4744 0.4187 0.3659 0.3121 0.2608 0.2294 0.2018 0.1936 0.1860 0.1770 0.1621 0.1628 0.1538 0.1420 -99999.0000 -99999.0000 0.1633 0.1993 0.2577 0.2740 0.2798 0.2856 0.2863 0.2734 0.2964 0.3328 0.3655 0.3801 0.4350 0.4635 0.4950 0.5607 0.6035 0.6904 0.8396 0.9843 1.1376 1.2683 1.3982 2.1810 3.0210 2.9839 2.5147 1.9487 1.7778 1.6784 1.6392 1.6434 1.6683 1.5904 1.4382 1.3174 1.2315 1.1579 1.0973 1.0082 0.9642 1.0127 1.0375 0.8715 0.9477 1.0565 1.1034 1.1591 1.1984 1.2112 1.2015 1.1442 -99999.0000 0.7308 0.6841 0.3955 0.6829 0.6836 0.6605 0.6454 0.6226 0.7437 1.2678 2.8539 2.4922 0.9024 1.2466 1.2104 1.0502 0.9192 0.9666 0.9517 0.9644 0.9257 0.6944 0.5140 0.6179 0.5435 0.3768
0.7204 0.9435 0.9981 1.0170 1.0588 1.1146 1.1682 1.2033 1.1167 2.6447 4.0793 3.5692 1.9290 1.8888 1.8377 1.6812 1.4638 1.3203 1.2792 1.2920 1.2076 1.0110 0.8888 0.8460 0.7581 0.6485 0.5933 0.5419 0.5420 0.5109 0.4678 0.4178 0.4039 0.3761 0.3624 0.3160 0.2742 0.2366 0.1920 0.1661 0.1479 0.1355 0.1283 0.1216 0.1079 0.1020 0.1046 0.1093 -99999.0000 -99999.0000 0.1457 0.1883 0.2060 0.2310 0.2538 0.2673 0.2665 0.2667 0.2886 0.3396 0.3730 0.3964 0.4263 0.4662 0.5009 0.5754 0.6407 0.7526 0.9365 1.0999 1.2302 1.4082 2.4811 2.9312 2.3807 1.7605 1.7269 1.6727 1.6065 1.5398 1.4660 1.4588 1.4725 1.3767 1.2107 1.1303 1.0354 0.9710 0.9602 0.9171 0.8598 0.9413 0.9901 0.8762 0.8625 1.0023 1.0505 1.0876 1.0931 1.1023 1.0253 1.0735 -99999.0000 -99999.0000 0.5331 0.4994 0.5370 0.5750 0.5115 0.5854 0.9617 1.9484 2.6801 1.3165 1.0094 0.8972 0.8268 0.7597 0.9412 1.1370 0.9611 0.9379 0.8076 0.5715 0.4961 0.4154 0.9117 1.3562 1.4509
0.6180 0.8139 0.8871 0.8975 0.9615 1.0498 1.1128 1.0892 1.9825 3.9162 3.7135 1.7398 1.8482 1.7806 1.7418 1.5576 1.3284 1.1785 1.1146 1.1372 1.0738 0.9087 0.7781 0.7259 0.6477 0.5452 0.4916 0.4427 0.4340 0.4166 0.3841 0.3362 0.3092 0.2749 0.2676 0.2439 0.2022 0.1690 0.1417 0.1211 0.1066 0.0919 0.0805 0.0799 0.0791 0.0647 0.0723 0.0755 -99999.0000 -99999.0000 0.1211 0.1638 0.1800 0.2075 0.2334 0.2602 0.2712 0.2810 0.3063 0.3356 0.3693 0.4024 0.4466 0.4829 0.5409 0.6319 0.7341 0.8475 0.9967 1.1623 1.4394 2.4378 2.6219 1.8743 1.4182 1.4084 1.5589 1.5003 1.4610 1.3836 1.2979 1.2742 1.2450 1.1861 1.0192 0.9634 0.8816 0.8579 0.8553 0.8502 0.8441 0.8640 0.9053 0.8533 0.8730 0.9175 0.9516 1.0203 1.0007 1.0202 0.9975 0.7143 -99999.0000 -99999.0000 0.3192 0.4723 0.4929 0.5103 0.7735 1.2716 2.2405 2.1134 1.2301 0.9867 0.7706 0.6503 0.3278 0.1409 0.4528 0.9313 0.8223 0.7320 0.5523 0.5714 0.5827 0.7661 0.9029 0.2552 0.9611
0.5277 0.7154 0.8084 0.8715 0.9559 1.0618 1.1576 1.3751 3.5295 4.0017 1.7176 1.6725 1.7131 1.6603 1.5672 1.4192 1.1945 1.0318 0.9724 0.9887 0.9513 0.8059 0.6876 0.6120 0.5573 0.4634 0.4141 0.3673 0.3501 0.3397 0.3054 0.2731 0.2358 0.2067 0.2016 0.1813 0.1502 0.1269 0.1026 0.0864 0.0789 0.0612 0.0555 0.0523 0.0566 0.0541 0.0522 0.0494 0.0674 -99999.0000 0.0979 0.1327 0.1642 0.1915 0.2238 0.2542 0.2746 0.2843 0.3053 0.3384 0.3767 0.4134 0.4605 0.5266 0.6138 0.7137 0.8133 0.9349 1.0541 1.3382 2.2068 2.3775 1.6151 1.3642 1.2526 1.2676 1.3935 1.3734 1.2896 1.2116 1.1401 1.0771 1.0508 0.9970 0.8912 0.8240 0.7708 0.7841 0.7666 0.7775 0.7794 0.7868 0.8374 0.8480 0.8198 0.8624 0.9196 0.9438 0.8752 0.7958 0.9039 0.9953 1.0852 -99999.0000 0.3649 0.4108 0.5885 0.9566 1.6213 1.8634 1.2158 1.0466 0.8026 0.6407 0.5687 0.4448 0.2870 0.0735 0.2736 0.6370 0.7893 0.6463 0.6812 0.6856 0.7827 0.8711 0.9240 1.0686 0.9877
0.4660 0.6593 0.7775 0.8845 1.0106 1.1636 1.2414 2.9455 4.0948 1.6157 1.5957 1.5586 1.5487 1.4683 1.3401 1.2164 1.0409 0.9031 0.8386 0.8620 0.8117 0.7080 0.5968 0.5142 0.4726 0.4042 0.3501 0.3070 0.2835 0.2683 0.2381 0.2129 0.1884 0.1644 0.1531 0.1381 0.1081 0.0960 0.0796 0.0725 0.0648 0.0469 0.0426 0.0557 0.0557 0.0533 0.0215 0.0559 0.0381 -99999.0000 -99999.0000 0.1120 0.1484 0.1814 0.2126 0.2436 0.2674 0.2822 0.3039 0.3416 0.3805 0.4172 0.4724 0.5372 0.6163 0.7255 0.8597 0.9875 1.2076 1.9082 2.2326 1.5258 1.2238 1.2058 1.1445 1.1425 1.2284 1.2320 1.1436 1.0618 0.9641 0.9457 0.8732 0.8577 0.7809 0.7343 0.7137 0.6952 0.7032 0.6876 0.7079 0.7284 0.7600 0.7769 0.8022 0.8187 0.7605 0.7493 0.7917 0.8456 0.9455 1.0283 0.9828 -99999.0000 -99999.0000 0.5698 0.9583 1.2840 1.2866 1.0316 0.8280 0.6368 0.5688 0.5101 0.4386 0.3564 0.2297 0.1502 0.4083 0.6355 0.6263 0.7298 0.7656 0.8124 0.7855 0.8136 0.8559 0.9507 1.3474
0.4232 0.6191 0.7646 0.9012 1.0766 1.2064 1.3101 4.3685 1.3110 1.5290 1.4793 1.3821 1.3593 1.2367 1.1092 1.0160 0.8818 0.7721 0.7271 0.7275 0.6835 0.6032 0.4989 0.4340 0.3948 0.3507 0.2897 0.2534 0.2320 0.2076 0.1842 0.1627 0.1464 0.1262 0.1167 0.1018 0.1015 0.0472 0.0728 0.0725 0.0706 0.0480 0.0550 0.0477 0.0557 0.0587 0.0612 0.0467 0.0412 -99999.0000 -99999.0000 0.1007 0.1411 0.1743 0.2011 0.2245 0.2526 0.2731 0.2974 0.3305 0.3687 0.4014 0.4499 0.5170 0.5980 0.7038 0.8444 1.0343 1.5400 2.0355 1.6722 1.1318 1.0543 1.0863 1.0724 1.0063 1.0755 1.0782 1.0264 0.9394 0.8430 0.8157 0.7596 0.7500 0.7205 0.6471 0.6384 0.6174 0.6153 0.6291 0.6393 0.6754 0.7021 0.6942 0.6203 0.6730 0.7144 0.7139 0.7697 0.8684 0.9300 0.8806 0.8094 -99999.0000 -99999.0000 0.6766 0.9130 0.8609 0.7992 0.6682 0.5991 0.5633 0.4929 0.4254 0.4419 0.3717 0.3371 0.4065 0.5285 0.5411 0.6521 0.7566 0.7187 0.6902 1.0167 1.1903 1.3785 1.5610 1.6724
0.3735 0.5832 0.7718 0.9130 1.0508 1.1910 1.4530 4.2598 1.3697 1.4181 1.3309 1.2034 1.1245 1.0064 0.8758 0.8178 0.7493 0.6500 0.6076 0.6042 0.5586 0.4887 0.4143 0.3530 0.3176 0.2876 0.2359 0.2073 0.1870 0.1623 0.1406 0.1218 0.1091 0.0946 0.0895 0.0892 0.0859 0.0884 0.0593 0.1155 0.0698 0.0582 0.0551 0.0598 0.0612 0.0566 0.0583 0.0589 0.0508 -99999.0000 -99999.0000 0.0916 0.1307 0.1614 0.1884 0.2140 0.2356 0.2555 0.2787 0.3087 0.3450 0.3859 0.4376 0.5153 0.6105 0.7032 0.8736 1.3223 1.8466 1.6890 1.0783 0.9861 0.9499 0.9808 0.9684 0.8934 0.9333 0.9420 0.9209 0.8524 0.7465 0.7268 0.6785 0.6492 0.6354 0.6114 0.5647 0.5661 0.5602 0.5681 0.6103 0.5831 0.4741 0.6230 0.6247 0.6193 0.6499 0.6939 0.7553 0.7872 0.7798 0.7420 0.7354 -99999.0000 -99999.0000 0.5568 0.6588 0.5493 0.5049 0.5272 0.5334 0.5320 0.5209 0.5012 0.4548 0.4517 0.4697 0.5399 0.5806 0.6542 0.7515 1.0213 1.2244 1.5633 1.8659 2.0952 2.2316 2.0583 2.5272
0.3682 0.5590 0.7507 0.8825 1.0048 1.1973 2.2633 3.9704 1.3455 1.2763 1.1560 1.0003 0.9151 0.7850 0.6829 0.6535 0.5915 0.5241 0.4848 0.4846 0.4480 0.3880 0.3299 0.2734 0.2463 0.2262 0.1894 0.1657 0.1485 0.1280 0.1060 0.0909 0.0787 0.0713 0.0692 0.0819 0.0960 0.1126 0.1190 0.0444 0.0668 0.0678 0.0695 0.0715 0.0731 0.0672 0.0721 0.0699 0.0654 0.0636 -99999.0000 0.0818 0.1162 0.1488 0.1756 0.2012 0.2259 0.2503 0.2753 0.3034 0.3402 0.3859 0.4435 0.5288 0.6308 0.7532 1.2025 1.6574 1.6490 1.0315 0.9118 0.8910 0.8668 0.8688 0.8799 0.8072 0.8013 0.8502 0.8260 0.7708 0.6805 0.6348 0.5882 0.6110 0.5945 0.5475 0.5339 0.5050 0.5486 0.5116 0.4153 0.4948 0.5115 0.5351 0.5575 0.6047 0.6277 0.6699 0.6862 0.6839 0.6738 0.6706 0.7559 0.8690 -99999.0000 0.3933 0.3517 0.3348 0.3871 0.4489 0.5214 0.5601 0.6024 0.6137 0.6437 0.6818 0.7265 0.7320 0.7537 0.9951 1.2276 1.6695 2.0636 2.2163 1.9188 2.3725 3.8365 5.1216 8.0389
0.3659 0.5434 0.7203 0.8289 0.9772 1.2133 2.8976 3.3915 1.2800 1.1351 0.9801 0.8256 0.7308 0.6158 0.5250 0.5013 0.4591 0.4063 0.3692 0.3717 0.3456 0.2971 0.2501 0.2075 0.1873 0.1667 0.1513 0.1337 0.1193 0.1034 0.0856 0.0644 0.0551 0.0501 0.0595 0.0781 0.0941 0.1105 0.1105 0.0726 0.0760 0.0847 0.0894 0.0917 0.0947 0.1000 0.0906 0.0905 0.0872 0.0788 -99999.0000 -99999.0000 0.1041 0.1417 0.1725 0.1991 0.2261 0.2535 0.2790 0.3073 0.3488 0.4061 0.4719 0.5578 0.7221 1.1552 1.4768 1.5406 1.1246 0.8673 0.8210 0.8099 0.7890 0.7766 0.7881 0.7381 0.7042 0.7539 0.7277 0.6880 0.5980 0.5672 0.5830 0.5473 0.5301 0.5091 0.5003 0.4816 0.3821 0.4179 0.4268 0.4517 0.4688 0.4907 0.5189 0.5832 0.6006 0.6306 0.6293 0.6461 0.6478 0.6937 0.7525 0.7636 -99999.0000 -99999.0000 0.2416 0.2811 0.3780 0.4901 0.5974 0.7471 0.8693 0.8948 0.8906 0.9361 1.1662 1.1356 1.3327 1.5828 1.6165 1.6462 2.0451 3.1046 5.0882 6.2983 6.5506 5.6328 6.6839
0.3569 0.5172 0.6822 0.7826 0.9731 1.2309 3.2356 2.8089 1.1913 0.9994 0.8154 0.6581 0.5698 0.4866 0.4107 0.3844 0.3565 0.3113 0.2692 0.2698 0.2532 0.2136 0.1808 0.1544 0.1351 0.1260 0.1148 0.1032 0.0927 0.0805 0.0642 0.0458 0.0336 0.0292 0.0370 0.0640 0.0934 0.1064 0.1063 0.1037 0.1078 0.1116 0.1183 0.1205 0.1259 0.1311 0.1277 0.1113 0.1028 0.0687 -99999.0000 -99999.0000 0.1007 0.1419 0.1747 0.2032 0.2268 0.2506 0.2799 0.3080 0.3507 0.4205 0.4968 0.6527 1.0840 1.3614 1.3605 1.0511 0.8862 0.7732 0.7487 0.7343 0.7218 0.7073 0.6958 0.6815 0.6155 0.6274 0.6342 0.5878 0.5490 0.5371 0.4924 0.5085 0.4684 0.4127 0.3848 0.4131 0.3617 0.3622 0.4068 0.4170 0.4380 0.4562 0.4985 0.5661 0.6177 0.6280 0.6118 0.6100 0.6167 0.6426 0.6372 0.6051 -99999.0000 -99999.0000 0.2837 0.3744 0.4956 0.6769 0.8661 1.0394 1.1793 1.2740 1.2636 1.5572 1.8683 1.7533 1.6121 1.4632 1.6311 3.4510 5.0195 6.2953 5.9944 5.2646 4.1881 4.4778 4.6812
0.3574 0.5010 0.6319 0.7535 0.9743 1.2664 2.7647 2.9683 1.1395 0.9049 0.6963 0.5439 0.4521 0.3837 0.3471 0.3225 0.2761 0.2344 0.1925 0.1851 0.1727 0.1434 0.1230 0.1101 0.0968 0.0888 0.0782 0.0729 0.0690 0.0597 0.0450 0.0280 0.0095 0.0157 0.0122 0.0344 0.0776 0.1080 0.1161 0.1259 0.1332 0.1453 0.1495 0.1521 0.1473 0.1359 0.1389 0.1339 0.1226 0.1238 -99999.0000 -99999.0000 0.0997 0.1404 0.1780 0.2042 0.2351 0.2640 0.2955 0.3211 0.3578 0.4419 0.6703 1.0403 1.1941 1.2405 0.9708 0.7902 0.7683 0.7239 0.6840 0.6588 0.6661 0.6296 0.6107 0.5723 0.5340 0.5264 0.5211 0.5071 0.4501 0.5180 0.4532 0.3612 0.3760 0.3608 0.3376 0.3467 0.3474 0.3600 0.3585 0.3748 0.4050 0.4423 0.4851 0.5560 0.5829 0.5900 0.5651 0.5272 0.5062 0.5133 0.4921 0.4725 0.5241 -99999.0000 0.2978 0.4142 0.6181 0.8532 1.0858 1.3557 1.6955 2.0030 1.9133 1.7747 1.5396 1.9583 3.0295 5.7022 6.5089 6.3989 5.5988 4.7550 3.1539 2.1328 2.0892 2.0755 1.9951
0.3325 0.4786 0.6109 0.7603 1.0043 1.2458 1.9808 3.3432 1.0810 0.8244 0.6124 0.4546 0.3828 0.3244 0.2870 0.2659 0.2317 0.1812 0.1541 0.1307 0.1119 0.0918 0.0806 0.0745 0.0653 0.0579 0.0488 0.0479 0.0507 0.0497 0.0286 0.0339 0.0670 0.0123 0.0039 0.0230 0.0622 0.1025 0.1270 0.1336 0.1417 0.1458 0.1493 0.1532 0.1598 0.1528 0.1533 0.1481 0.1337 0.1211 0.1317 -99999.0000 0.1101 0.1510 0.1834 0.2117 0.2439 0.2787 0.3076 0.3111 0.4314 0.7057 1.0098 1.0856 1.0804 0.9493 0.7612 0.6898 0.7002 0.6779 0.6173 0.5993 0.5821 0.5373 0.5367 0.4770 0.4540 0.4422 0.3373 0.4746 0.4309 0.3058 0.3751 0.3382 0.3268 0.2991 0.3173 0.2762 0.3176 0.3270 0.3542 0.3982 0.4378 0.4505 0.4721 0.4879 0.4814 0.4648 0.4269 0.3878 0.3860 0.4091 0.4226 0.4621 0.4861 -99999.0000 -99999.0000 0.4161 0.6048 1.2542 1.8489 2.1510 1.9615 1.8084 2.1197 2.7227 5.1402 6.1127 6.1279 4.5586 3.0087 2.2428 2.2357 2.1831 2.1123 1.8581 1.8681 1.9455 1.6262
0.3522 0.4899 0.6202 0.7761 0.9818 1.1453 1.3913 3.3576 1.0307 0.7778 0.5666 0.4122 0.3394 0.2901 0.2497 0.2180 0.1902 0.1564 0.1245 0.0993 0.0784 0.0573 0.0520 0.0513 0.0458 0.0395 0.0383 0.0399 0.0481 0.0469 0.0494 0.0562 0.0575 0.0073 0.0005 0.0179 0.0529 0.0895 0.1181 0.1307 0.1341 0.1392 0.1402 0.1462 0.1622 0.1681 0.1478 0.1443 0.1170 0.1312 0.1411 -99999.0000 -99999.0000 0.1479 0.1853 0.2112 0.2511 0.2948 0.3160 0.4622 0.6274 0.9875 0.9760 0.9159 0.7674 0.7687 0.6848 0.6303 0.6436 0.6136 0.5598 0.5329 0.5115 0.4816 0.4386 0.4016 0.3284 0.3773 0.3450 0.2737 0.3200 0.2671 0.2872 0.3076 0.3328 0.3153 0.3174 0.2975 0.3061 0.3572 0.4005 0.4398 0.4508 0.4447 0.3793 0.3669 0.3638 0.3252 0.3464 0.3418 0.3405 0.3792 0.4200 0.4505 0.5058 -99999.0000 -99999.0000 0.3721 1.6731 2.1105 2.2368 2.2603 2.3260 2.7002 4.5246 5.6022 4.3336 2.4355 2.0226 1.8636 1.9601 1.9375 1.9075 1.9370 1.8231 1.6979 1.6080 1.7236 1.4285
0.3558 0.4986 0.6295 0.7722 0.9367 1.0162 1.1687 3.2102 1.1175 0.7520 0.5398 0.3977 0.3265 0.2623 0.2248 0.1911 0.1559 0.1239 0.1018 0.0849 0.0613 0.0428 0.0358 0.0394 0.0382 0.0349 0.0364 0.0326 0.0390 0.0429 0.0513 0.0541 0.0504 0.0299 0.0098 0.0107 0.0441 0.0809 0.1055 0.1218 0.1327 0.1364 0.1426 0.1459 0.1387 0.1540 0.1574 0.1360 0.1566 0.1525 0.1606 -99999.0000 -99999.0000 0.1053 0.1619 0.1904 0.2105 0.3197 0.5702 0.8470 0.9322 0.7508 0.7440 0.7074 0.6962 0.6803 0.6218 0.5739 0.5611 0.5464 0.5009 0.5065 0.4455 0.4001 0.2967 0.3395 0.2794 0.2433 0.2589 0.2154 0.2616 0.2950 0.3088 0.2902 0.3432 0.3370 0.3273 0.3699 0.3962 0.4417 0.4908 0.4578 0.4798 0.4501 0.4307 0.4333 0.4215 0.4073 0.3983 0.3909 0.3788 0.3876 0.4055 0.3860 0.4316 -99999.0000 -99999.0000 2.2746 2.7893 2.5418 2.6559 2.6054 3.8129 4.9712 4.1399 1.9129 1.8497 1.8346 1.8466 1.8192 1.8102 1.8365 1.7218 1.7357 1.5754 1.4756 1.4561 1.4816 1.4217
0.3601 0.5000 0.6254 0.7355 0.8580 0.9301 1.0774 2.6616 2.1924 0.7569 0.5400 0.3905 0.3084 0.2459 0.2002 0.1658 0.1316 0.1044 0.0821 0.0658 0.0512 0.0370 0.0278 0.0304 0.0328 0.0364 0.0301 0.0377 0.0347 0.0365 0.0477 0.0533 0.0489 0.0389 0.0380 0.0167 0.0439 0.0679 0.0936 0.1154 0.1322 0.1460 0.1501 0.1440 0.1377 0.1437 0.1487 0.1699 0.1687 0.1951 0.2689 -99999.0000 -99999.0000 0.0761 0.1149 0.1167 0.2547 0.4810 0.6902 0.7203 0.6392 0.6329 0.6231 0.6640 0.5969 0.6034 0.5521 0.5241 0.5017 0.4936 0.4813 0.3250 0.4308 0.3534 0.2795 0.1660 0.2550 0.1846 0.2437 0.2657 0.2998 0.3046 0.3157 0.3373 0.3365 0.3892 0.4416 0.4628 0.5053 0.5550 0.5859 0.5858 0.6059 0.6274 0.6424 0.6064 0.6105 0.5984 0.5514 0.5429 0.5571 0.5193 0.3058 0.4522 1.1648 2.0898 -99999.0000 -99999.0000 2.3623 2.9183 2.9332 4.2051 3.7680 1.9416 1.9517 1.8481 1.7330 1.7271 1.7012 1.7174 1.6720 1.7249 1.6039 1.5331 1.4578 1.3216 1.3392 1.4178 1.3552
0.3651 0.4956 0.6034 0.6862 0.7916 0.8607 0.9445 1.6132 2.8017 0.7562 0.5364 0.3782 0.2927 0.2299 0.1823 0.1473 0.1196 0.0924 0.0681 0.0507 0.0431 0.0340 0.0248 0.0218 0.0281 0.0301 0.0406 0.0417 0.0350 0.0341 0.0436 0.0536 0.0522 0.0404 0.0297 0.0473 0.0533 0.0700 0.0846 0.1058 0.1220 0.1397 0.1523 0.1566 0.1620 0.1624 0.1910 0.2423 0.4546 0.5276 0.6183 0.7198 -99999.0000 0.0349 0.0970 0.3407 0.4536 0.5630 0.5924 0.6430 0.6580 0.5635 0.5641 0.5660 0.5360 0.5393 0.4958 0.4733 0.4558 0.3146 0.4572 0.3970 0.3636 0.3214 0.2727 0.2575 0.2469 0.2548 0.2676 0.2920 0.2850 0.3228 0.3481 0.3588 0.4048 0.4701 0.5431 0.5877 0.6337 0.6748 0.7242 0.7694 0.8034 0.8442 0.8623 0.8466 0.8262 0.8098 0.8035 0.8456 0.8988 0.8858 1.1594 1.6358 2.1821 2.6812 -99999.0000 -99999.0000 1.7385 2.6376 3.0923 2.1072 2.0863 1.9220 1.8376 1.6798 1.5890 1.5760 1.5506 1.5517 1.5235 1.5674 1.4975 1.4058 1.3487 1.2286 1.2031 1.3465 1.3013
0.3614 0.4823 0.5695 0.6363 0.7339 0.7907 0.8605 1.3302 2.7753 0.7994 0.5166 0.3552 0.2730 0.2183 0.1732 0.1388 0.1115 0.0842 0.0633 0.0417 0.0371 0.0302 0.0212 0.0201 0.0179 0.0287 0.0390 0.0427 0.0317 0.0271 0.0385 0.0522 0.0566 0.0624 0.0149 0.0462 0.0577 0.0768 0.0940 0.1054 0.1227 0.1424 0.1654 0.1937 0.2250 0.3155 0.4065 0.8333 0.6926 0.8494 1.0283 1.1225 -99999.0000 -99999.0000 0.2214 0.3619 0.4636 0.5376 0.6070 0.5865 0.5824 0.5308 0.5077 0.5125 0.4948 0.4612 0.4487 0.3377 0.3962 0.4029 0.4200 0.3853 0.3137 0.2779 0.2578 0.2425 0.2305 0.2373 0.2525 0.2706 0.3081 0.3356 0.3714 0.4258 0.4692 0.5383 0.6501 0.7264 0.7838 0.8253 0.9004 0.9696 0.9856 1.0323 1.0537 1.0251 0.9839 1.0397 1.0910 1.1861 1.2702 1.3911 1.8343 2.0660 2.1578 2.5409 -99999.0000 -99999.0000 1.3034 1.8652 1.9920 2.0401 1.9426 1.8149 1.6689 1.5539 1.4592 1.3915 1.3654 1.3712 1.3311 1.3787 1.4034 1.2556 1.2419 1.0793 1.0843 1.2326 1.2706
0.3438 0.4550 0.5267 0.5915 0.6809 0.7242 0.7740 1.0251 2.5304 1.6611 0.5072 0.3488 0.2642 0.2047 0.1694 0.1359 0.1065 0.0791 0.0625 0.0464 0.0331 0.0246 0.0172 0.0128 0.0127 0.0265 0.0396 0.0439 0.0340 0.0166 0.0311 0.0516 0.0584 0.0475 0.0715 0.0613 0.0724 0.0898 0.1072 0.1340 0.1623 0.2002 0.2762 0.3661 0.5871 0.6594 1.1717 0.8333 1.2288 1.2609 1.1614 1.0544 -99999.0000 -99999.0000 0.2704 0.3916 0.4711 0.5557 0.5500 0.5270 0.5319 0.5066 0.4798 0.4589 0.4329 0.4033 0.3646 0.2912 0.3809 0.4346 0.4048 0.2998 0.2590 0.2461 0.2334 0.2062 0.2529 0.2509 0.2864 0.2925 0.3331 0.3727 0.4335 0.5077 0.5882 0.6559 0.7849 0.8993 0.9381 0.9863 1.0368 1.1280 1.1577 1.1933 1.2087 1.1492 1.1158 1.2011 1.3026 1.4656 1.5393 1.5453 2.0396 3.8649 5.4884 7.0006 7.0101 -99999.0000 1.2716 1.6326 1.8515 1.8426 1.7998 1.6953 1.5047 1.4474 1.3243 1.2212 1.1889 1.1656 1.1474 1.2110 1.2435 1.1536 1.0901 1.0065 0.9588 1.0866 1.2591
0.3069 0.4157 0.4823 0.5436 0.6309 0.6526 0.7026 0.8302 1.8675 2.2449 0.4978 0.3551 0.2639 0.2056 0.1587 0.1276 0.1049 0.0812 0.0611 0.0462 0.0335 0.0187 0.0052 0.0097 0.0141 0.0267 0.0388 0.0467 0.0513 0.0129 0.0291 0.0562 0.0759 0.0772 0.0719 0.0983 0.1209 0.1495 0.1891 0.2653 0.4310 0.4587 0.5428 0.7212 0.9108 1.2085 0.9391 1.0861 0.9240 0.6892 0.6103 0.5614 -99999.0000 -99999.0000 0.3035 0.4129 0.4823 0.5154 0.5154 0.5058 0.4932 0.4848 0.4434 0.4151 0.4109 0.3672 0.3868 0.3291 0.3713 0.4621 0.2576 0.2151 0.2124 0.2288 0.2149 0.2146 0.2449 0.2788 0.2705 0.3161 0.3622 0.4177 0.4883 0.5994 0.7043 0.7987 0.9404 1.0658 1.1173 1.1922 1.2893 1.7861 2.8420 3.5438 3.7419 3.0869 1.8665 1.4377 2.0194 2.6732 3.0949 4.3207 6.1195 6.3474 5.5492 3.9000 1.9784 -99999.0000 -99999.0000 1.4988 1.6960 1.6849 1.6316 1.5349 1.3763 1.3072 1.1555 1.0775 1.0336 1.0068 1.0524 1.0741 1.1075 1.0784 0.9797 0.9649 0.8385 0.9277 1.2362
0.2691 0.3740 0.4408 0.5053 0.5700 0.5781 0.6364 0.7111 1.2419 2.5087 0.5298 0.3760 0.2837 0.2135 0.1598 0.1282 0.1058 0.0853 0.0637 0.0492 0.0342 0.0181 0.0078 0.0101 0.0193 0.0316 0.0433 0.0540 0.0680 0.0251 0.0495 0.0729 0.1091 0.2939 0.2955 0.2796 0.2914 0.3406 0.4150 0.5605 0.6324 0.6846 0.8361 0.9992 0.9936 0.8325 0.6536 0.6397 0.6197 0.5718 0.5969 0.5818 -99999.0000 -99999.0000 0.3229 0.4190 0.4793 0.5034 0.4899 0.4902 0.4591 0.4324 0.4485 0.3786 0.3653 0.3704 0.3515 0.3998 0.4751 0.2187 0.0589 0.1078 0.2116 0.1817 0.1824 0.2037 0.2373 0.2550 0.3148 0.3539 0.4057 0.4976 0.5736 0.7056 0.8103 0.9326 1.0551 1.2044 1.3141 1.6407 2.6710 4.0362 4.1030 3.7665 3.7467 4.6054 5.0060 4.4599 4.3005 4.4257 4.8968 5.4094 4.2295 2.6671 2.0892 2.0532 1.8220 -99999.0000 -99999.0000 1.3871 1.5211 1.5319 1.4211 1.3305 1.2145 1.0927 1.0137 0.9594 0.9161 0.9348 1.0029 0.9716 1.0322 0.9778 0.9072 0.8657 0.7848 0.8768 1.1329
0.2503 0.3405 0.4061 0.4645 0.5176 0.5299 0.5767 0.6486 0.8125 1.8994 2.0499 0.4041 0.3150 0.2288 0.1671 0.1319 0.1072 0.0890 0.0690 0.0470 0.0308 0.0200 0.0114 0.0192 0.0274 0.0391 0.0551 0.0706 0.1585 0.0970 0.0663 0.1712 0.5474 0.5242 0.5323 0.5465 0.5550 0.5776 0.6486 0.6916 0.6499 0.9191 0.9683 0.8485 0.8344 0.6699 0.5813 0.6159 0.5391 0.5777 0.5936 0.5792 0.4943 -99999.0000 0.3105 0.4132 0.4857 0.4995 0.4555 0.4340 0.4545 0.3956 0.4016 0.3694 0.3464 0.3541 0.3086 0.3834 0.4633 0.3289 0.1866 0.1430 0.0827 0.1186 0.1447 0.1990 0.2665 0.3369 0.4040 0.4347 0.5031 0.5925 0.6835 0.8008 0.9515 1.0755 1.1646 1.3957 2.1297 3.5578 3.8499 2.8965 1.8977 1.4749 1.4802 1.5337 1.7258 3.4419 3.7273 3.6834 4.2661 3.5991 2.2532 1.7814 1.7914 1.8483 1.8138 -99999.0000 -99999.0000 1.1763 1.2651 1.2863 1.1867 1.1018 1.0001 0.9046 0.9219 0.8856 0.8809 0.9114 0.9366 0.9282 0.9334 0.8768 0.8572 0.7795 0.7809 0.7763 1.0087
0.2450 0.3233 0.3840 0.4302 0.4674 0.4902 0.5223 0.5979 0.7641 1.0698 2.2981 1.4056 0.3492 0.2489 0.1795 0.1367 0.1078 0.0890 0.0673 0.0414 0.0221 0.0218 0.0256 0.0288 0.0388 0.0563 0.0882 0.1234 0.1893 0.2294 0.3462 0.7546 0.6027 0.5886 0.5825 0.5946 0.5706 0.7017 0.6918 0.6191 0.8787 0.9048 0.6953 0.7160 0.6650 0.5978 0.5622 0.5819 0.5794 0.5679 0.5741 0.5472 0.5384 -99999.0000 -99999.0000 0.4692 0.4080 0.4299 0.4624 0.3851 0.4096 0.3889 0.3724 0.3631 0.3263 0.3331 0.3386 0.2576 0.3995 0.4018 0.3661 0.3652 0.0274 0.0551 0.1258 0.2792 0.3891 0.4454 0.5120 0.5789 0.6292 0.7129 0.8289 0.9030 1.0495 1.2237 1.6612 2.8030 3.6269 3.2630 1.8257 1.2427 1.2557 1.3009 1.3922 1.4475 1.5244 1.5723 1.6135 2.2169 3.6251 2.9799 1.9783 1.5781 1.5915 1.6648 1.6356 1.4241 -99999.0000 -99999.0000 1.0160 0.9849 0.9654 0.9008 0.8169 0.7834 0.8770 0.8559 0.8597 0.8954 0.9002 0.8840 0.8499 0.8267 0.7673 0.7256 0.7253 0.7007 0.8787
0.2516 0.3304 0.3777 0.4021 0.4207 0.4343 0.4645 0.5593 0.8141 1.0854 1.4670 2.1866 0.3576 0.2766 0.1944 0.1435 0.1113 0.0866 0.0629 0.0376 0.0145 0.0166 0.0248 0.0352 0.0566 0.0919 0.1383 0.1786 0.1649 0.6231 0.7427 0.4650 0.4604 0.4712 0.5091 0.5376 0.7654 0.8204 0.8442 0.8727 0.7849 0.6497 0.6451 0.6264 0.6195 0.5903 0.5742 0.5770 0.5804 0.5451 0.5525 0.6090 0.5118 -99999.0000 -99999.0000 0.3722 0.4081 0.3592 0.4038 0.3825 0.3726 0.3738 0.3516 0.3438 0.3218 0.2995 0.3220 0.2456 0.3858 0.4983 0.5746 0.4154 0.0029 0.0258 0.0780 0.9356 0.6160 0.6631 0.6977 0.8050 0.8550 0.9220 1.0095 1.0659 1.4434 2.2928 3.3308 3.3049 2.4529 1.4752 1.2859 1.1670 1.1497 1.1753 1.2041 1.3152 1.4321 1.5170 1.6131 2.7877 3.5796 2.5954 1.8374 1.4984 1.4808 1.4592 1.4032 1.2413 -99999.0000 -99999.0000 0.7552 0.7346 0.7470 0.7534 0.7358 0.7445 0.7911 0.8206 0.8643 0.8695 0.8568 0.8302 0.7587 0.7431 0.6879 0.6850 0.6480 0.6150 0.7342
0.2855 0.3596 0.3766 0.3658 0.3711 0.3679 0.4334 0.6340 0.9650 1.1753 1.2842 1.9593 1.5786 0.3184 0.2124 0.1536 0.1162 0.0864 0.0590 0.0316 0.0126 0.0033 0.0211 0.0445 0.0881 0.1434 0.1977 0.2495 0.6200 0.6113 0.6800 0.6575 0.5047 0.4855 0.5622 0.6825 0.7353 0.7167 0.6619 0.6020 0.6227 0.5861 0.5758 0.5898 0.5957 0.5778 0.5610 0.5942 0.5661 0.5140 0.5531 0.5339 0.4583 -99999.0000 -99999.0000 0.2755 0.3482 0.3450 0.3613 0.3589 0.3429 0.3428 0.3330 0.3219 0.3000 0.2791 0.3112 0.2374 0.3887 0.6264 0.3856 0.4329 0.0000 0.0360 0.5869 0.6878 1.3402 0.9410 0.9763 1.0317 1.1030 1.1650 1.2890 2.0060 3.0359 3.0935 2.5038 1.7016 1.6013 1.3776 1.2062 1.0338 0.9725 0.9655 0.9894 1.1876 1.4144 1.5577 1.6847 3.2028 3.3129 2.1804 1.7404 1.4691 1.3692 1.2715 1.1701 1.0949 -99999.0000 -99999.0000 0.5733 0.5685 0.5902 0.6439 0.6885 0.6974 0.7184 0.8234 0.8478 0.8330 0.7860 0.7313 0.6717 0.6648 0.6505 0.6259 0.5667 0.5606 0.5819
0.2857 0.3395 0.3563 0.3789 0.3877 0.4005 0.4151 0.8167 1.1214 1.2722 1.9274 1.6533 1.9534 0.3329 0.2441 0.1676 0.1238 0.0920 0.0638 0.0353 0.0013 0.1974 0.0414 0.0924 0.1429 0.1892 0.2625 0.2510 0.6698 0.7786 0.6994 0.5353 0.7508 0.6153 0.5824 0.6795 0.7809 0.7081 0.6051 0.5632 0.5500 0.5609 0.5648 0.5563 0.5632 0.5569 0.5403 0.5514 0.5540 0.4781 0.4491 0.4777 0.3759 0.3666 -99999.0000 0.2195 0.2953 0.3324 0.3304 0.3166 0.3131 0.3098 0.3025 0.2938 0.2787 0.2531 0.2849 0.2411 0.2427 0.5612 0.5618 0.6564 0.3392 0.0554 0.7467 0.8210 1.1572 0.8681 1.1394 1.2489 1.3355 1.4802 2.6704 2.8230 2.2398 1.7229 1.5853 1.4123 1.3980 1.2461 1.0546 0.8408 0.7262 0.7425 0.8502 1.1459 1.4418 1.6445 2.0102 3.4405 2.7433 1.8583 1.6571 1.4669 1.2640 1.0919 0.9713 0.9077 0.8296 -99999.0000 0.4173 0.4428 0.4976 0.5622 0.6400 0.6648 0.6824 0.7949 0.8142 0.7687 0.6896 0.6247 0.5861 0.5621 0.5514 0.5265 0.5197 0.4914 0.4706
0.2433 0.2990 0.3332 0.3793 0.3886 0.4119 0.5930 1.0373 1.0332 2.4114 3.7251 4.2671 2.0123 0.6310 0.2977 0.2046 0.1494 0.1117 0.0830 0.0511 0.0234 0.2115 0.1187 0.1023 0.1807 0.2486 0.2848 0.2361 0.5325 0.9034 0.5810 0.1298 0.6262 0.7869 0.5594 0.8042 0.7124 0.5974 0.5448 0.5227 0.5218 0.5261 0.5272 0.5414 0.5104 0.4942 0.5197 0.4704 0.4330 0.4601 0.3566 0.3951 0.3876 0.3377 -99999.0000 -99999.0000 0.2794 0.3021 0.2896 0.2787 0.2791 0.2802 0.2685 0.2579 0.2480 0.2400 0.2436 0.2526 0.1802 0.4397 0.6440 0.6159 0.0831 0.0401 0.1301 0.7747 0.3410 0.9060 1.1963 1.3091 1.4525 2.4898 2.1207 1.4569 1.3719 1.4324 1.3997 1.2749 1.1735 1.0772 0.8618 0.6658 0.6004 0.6543 0.9050 1.1906 1.5187 1.7753 2.7265 3.2687 2.0679 1.7080 1.5792 1.3827 1.1495 0.9466 0.8075 0.7949 0.7699 -99999.0000 -99999.0000 0.3733 0.4440 0.4961 0.5731 0.6433 0.6843 0.7604 0.7543 0.6520 0.5862 0.5044 0.4700 0.4486 0.4489 0.4659 0.5021 0.4846 0.4904
0.1676 0.2582 0.3337 0.3763 0.4063 0.4325 0.7003 1.0680 2.5408 2.6974 3.2377 4.4148 4.3918 1.8011 0.3044 0.2377 0.1958 0.1626 0.1225 0.0926 0.0841 0.2053 0.1906 0.1665 0.2234 0.2372 0.3031 0.2903 0.4083 0.8455 0.5932 0.1147 0.1103 0.5532 0.7840 0.8089 0.5583 0.5205 0.5181 0.5027 0.4913 0.4765 0.4504 0.4692 0.4643 0.3999 0.3878 0.4125 0.3373 0.3833 0.3541 0.3482 0.3588 0.3255 -99999.0000 -99999.0000 0.2533 0.2621 0.2500 0.2395 0.2546 0.2369 0.2316 0.2425 0.2376 0.2415 0.2323 0.2497 0.1974 0.4212 0.6269 0.2336 0.0423 0.0276 0.0261 0.1264 0.2107 0.6828 1.0519 1.2429 2.0195 1.5525 1.2356 1.2847 1.2458 1.2435 1.1672 1.0645 0.9653 0.8917 0.7466 0.6392 0.6530 0.8548 1.0674 1.3016 1.5525 1.9203 3.0796 2.3840 1.7899 1.5979 1.4682 1.2601 1.0059 0.8435 0.7039 0.7035 0.7185 -99999.0000 -99999.0000 0.3376 0.4025 0.4481 0.5377 0.6223 0.6627 0.6413 0.6436 0.5448 0.4968 0.4154 0.4000 0.3989 0.4156 0.4465 0.5004 0.5324 0.6559
0.1602 0.2413 0.3196 0.3650 0.4001 0.3964 0.6685 0.9722 1.9985 3.0463 2.0660 2.8262 4.3399 1.7568 0.2492 0.2286 0.2091 0.2002 0.1779 0.1490 0.1622 0.2112 0.2137 0.2315 0.2366 0.2770 0.2963 0.3323 0.3649 0.6114 0.6095 0.3462 0.2755 0.5221 0.7025 0.6010 0.5453 0.5271 0.4916 0.4625 0.4206 0.4121 0.3883 0.3246 0.3271 0.3309 0.2831 0.3324 0.3213 0.3287 0.3311 0.3221 0.3136 0.2927 -99999.0000 -99999.0000 0.2106 0.2078 0.2080 0.2178 0.2118 0.2035 0.2115 0.2262 0.2485 0.2443 0.2283 0.2011 0.1715 0.4628 0.7491 0.4810 0.0061 0.0642 0.0333 0.0857 0.2134 0.4234 0.7419 1.4371 1.4491 1.1589 1.0728 1.0925 1.0516 0.9938 0.9384 0.8738 0.7602 0.7588 0.6940 0.7140 0.8981 1.1143 1.3513 1.5322 1.7720 2.2303 2.8704 1.8595 1.7034 1.4805 1.3265 1.1320 0.8986 0.7271 0.6417 0.6140 0.6802 -99999.0000 -99999.0000 0.2716 0.3338 0.4504 0.5346 0.5701 0.5869 0.5377 0.5588 0.5001 0.4229 0.4343 0.4567 0.4761 0.4925 0.5059 0.5278 0.6081 0.8636
0.1592 0.2323 0.3130 0.3709 0.3862 0.3804 0.3848 0.8891 1.4261 1.8937 2.4757 3.6135 2.8563 1.7379 0.3891 0.2518 0.1788 0.1700 0.1975 0.1867 0.1890 0.2178 0.2334 0.2520 0.2554 0.2850 0.3073 0.3410 0.3522 0.4182 0.4836 0.3816 0.3969 0.4299 0.5045 0.5242 0.5243 0.4900 0.4427 0.4178 0.3414 0.2696 0.2655 0.2255 0.2199 0.2608 0.2520 0.2787 0.2945 0.2932 0.2914 0.2764 0.2582 0.2389 0.2133 -99999.0000 0.1520 0.1679 0.1724 0.1815 0.1773 0.1920 0.2111 0.2230 0.2272 0.2183 0.2199 0.1907 0.1611 0.2096 0.6171 1.0459 0.4130 0.3214 0.1096 0.2237 0.2414 0.3229 0.6121 1.3642 1.1471 1.0066 0.9182 0.8528 0.8247 0.7257 0.7200 0.6998 0.6150 0.6505 0.7090 0.7884 0.9934 1.2495 1.4715 1.6932 1.8392 2.3148 2.0378 1.5458 1.5233 1.4036 1.2030 0.9774 0.7739 0.6117 0.5696 0.5625 0.6054 0.6616 -99999.0000 -99999.0000 0.3172 0.4354 0.4914 0.5273 0.5235 0.4684 0.4796 0.4841 0.5172 0.5551 0.5792 0.5971 0.6033 0.6223 0.6488 0.7263 1.0735
0.1029 0.1779 0.2580 0.3048 0.3373 0.3066 0.3113 0.4461 0.7843 1.2564 2.3530 2.7187 1.8869 1.0042 0.4435 0.3421 0.2938 0.2272 0.1938 0.1878 0.1934 0.1983 0.2236 0.2414 0.2555 0.2730 0.2972 0.3205 0.3537 0.3891 0.4445 0.4582 0.4624 0.4470 0.4472 0.4535 0.4612 0.4244 0.3423 0.2754 0.2210 0.1575 0.1739 0.1815 0.1838 0.2117 0.2250 0.2393 0.2521 0.2515 0.2436 0.2245 0.2002 0.1823 0.1600 -99999.0000 -99999.0000 0.1228 0.1371 0.1385 0.1586 0.1731 0.1903 0.1894 0.2074 0.2086 0.2028 0.1905 0.1724 0.1923 0.2352 0.5935 0.5131 0.4074 0.4162 0.3144 0.3473 0.3020 0.4481 0.9910 1.0236 0.8502 0.7207 0.6044 0.6177 0.5167 0.5567 0.5562 0.5253 0.5858 0.6984 0.8051 0.9918 1.2376 1.5162 1.6944 1.8225 1.8306 1.3505 1.3596 1.3052 1.2396 1.0343 0.8105 0.6351 0.5023 0.4839 0.5438 0.5412 0.5853 -99999.0000 -99999.0000 0.3454 0.4222 0.4515 0.4872 0.5026 0.4424 0.4665 0.5838 0.6450 0.6770 0.7178 0.7209 0.7312 0.7449 0.7813 0.7781 1.2536
0.0952 0.1371 0.1902 0.2098 0.2322 0.2382 0.2580 0.2893 0.3820 0.6334 0.9972 1.3579 1.1335 0.5562 0.4979 0.3624 0.2598 0.1803 0.1436 0.1364 0.1472 0.1683 0.1745 0.2142 0.2131 0.2175 0.2266 0.2638 0.3103 0.3526 0.3952 0.4277 0.4181 0.3728 0.3457 0.3573 0.3101 0.2641 0.2127 0.1233 0.1434 0.1302 0.1297 0.1425 0.1536 0.1727 0.1850 0.1943 0.2023 0.2018 0.1900 0.1718 0.1390 0.1232 0.1209 -99999.0000 -99999.0000 0.0893 0.1112 0.1326 0.1398 0.1374 0.1591 0.1697 0.1833 0.1964 0.1902 0.1962 0.1910 0.1723 0.2086 0.3344 0.4084 0.1317 0.4285 0.4343 0.4266 0.7635 0.2227 0.7288 0.7859 0.6416 0.4742 0.4176 0.4352 0.4216 0.4195 0.4384 0.4608 0.5025 0.6515 0.7954 1.0258 1.2606 1.4772 1.5687 1.5582 1.1250 1.0625 1.1592 1.0868 1.0316 0.8146 0.6458 0.5049 0.4211 0.3982 0.4670 0.5159 0.5340 -99999.0000 -99999.0000 0.3445 0.3994 0.4090 0.4440 0.4857 0.5111 0.5800 0.7198 0.8189 0.8590 0.9075 0.9250 0.9412 1.0006 1.0873 0.8854 1.4447
0.1052 0.1241 0.1393 0.1356 0.1460 0.1536 0.1715 0.2114 0.2518 0.3211 0.3782 0.6067 0.5279 0.4808 0.4694 0.2682 0.1788 0.1110 0.0872 0.0865 0.0985 0.1142 0.1391 0.1813 0.1527 0.1462 0.1406 0.1833 0.2245 0.2665 0.3020 0.3318 0.3189 0.2600 0.2144 0.2345 0.1506 0.1132 0.1418 0.0761 0.1029 0.0946 0.0871 0.1015 0.1135 0.1281 0.1348 0.1396 0.1444 0.1451 0.1346 0.1248 0.0939 0.0749 0.0857 -99999.0000 -99999.0000 0.0770 0.0766 0.1032 0.1068 0.1052 0.1254 0.1403 0.1509 0.1746 0.1913 0.1994 0.2012 0.1994 0.1618 0.3413 0.5126 0.6191 0.5794 0.6453 0.7220 0.2108 0.2371 0.4492 0.5412 0.4311 0.2788 0.2893 0.3065 0.3191 0.3055 0.3075 0.3503 0.3976 0.5808 0.7550 0.9422 1.1295 1.2389 1.2322 0.9716 0.5887 0.8053 0.8844 0.8128 0.7873 0.5731 0.4795 0.3754 0.3358 0.3100 0.3638 0.4197 0.4279 0.3991 -99999.0000 0.3156 0.3237 0.3224 0.3486 0.4248 0.5464 0.6800 0.7706 0.8505 0.9428 1.0194 1.0980 1.2334 1.3528 1.5057 1.6992 2.1357
